 0950103   201     5   r   051313   051313   0                                 0
 1.861883196614394e+02 1.909679348255092e+02 1.958457703676205e+02 2.008228603580842e+02 2.059002401890852e+0211111
 2.110789465587455e+02 2.163600174554974e+02 2.217444921427539e+02 3.324158988853409e+01 3.371231941624642e+0111111
 3.403829486537842e+01 3.422700546512887e+01 3.438268677943474e+01 3.456222454608073e+01 3.476644763961230e+0111111
 3.499619073879230e+01 3.525229283108197e+01 3.553559775080326e+01 3.584695423681933e+01 3.618721579473666e+0111111
 3.655724056798154e+01 3.695789121655539e+01 3.739003480249286e+01 3.785454268122294e+01 3.835229039817456e+0111111
 3.888415759008051e+01 3.945102789052513e+01 4.005378883935433e+01 4.069333179562558e+01 4.137055185382366e+0111111
 4.208634776310803e+01 4.284162184938736e+01 4.363727994004601e+01 4.447423129116596e+01 4.535338851710699e+0111111
 4.627566752232276e+01 4.724198743530199e+01 4.825327054453465e+01 4.931044223641209e+01 5.041443093497719e+0111111
 5.156616804344706e+01 5.276658788743633e+01 5.401662765981364e+01 5.531722736712897e+01 5.666932977755162e+0111111
 5.807388037026382e+01 5.953182728625625e+01 6.104412128047582e+01 6.261171567527703e+01 6.423556631513186e+0111111
 6.591663152819255e+01 6.765587229566259e+01 6.945425187081500e+01 7.131273574522874e+01 7.323229173046417e+0111111
 7.521388991822991e+01 7.725850264171181e+01 7.936710443800959e+01 8.154067201163022e+01 8.378018419899118e+0111111
 8.608662193388915e+01 8.846096821389436e+01 9.090420806763220e+01 9.341732852291570e+01 9.600131857569644e+0111111
 9.865716915980244e+01 1.013858731174324e+02 1.041884251703799e+02 1.070658218919602e+02 1.100190616796143e+0211111
 1.130491447281682e+02 1.161570730037231e+02 1.193438502181572e+02 1.226104818042158e+02 1.259579748911734e+0211111
 1.293873382810484e+02 1.328995824253504e+02 1.364957194023486e+02 1.401767628948383e+02 1.439437281683964e+0211111
 1.477976320501057e+02 1.517394929077399e+02 1.557703306293884e+02 1.598911666035145e+02 1.641030236994300e+0211111
 1.684069262481760e+02 1.728039000237989e+02 1.772949722250079e+02 1.818811714572060e+02 1.865635277148823e+0211111
 1.913430723643571e+02 1.962208381268678e+02 2.011978590619891e+02 2.062751705513774e+02 2.114538092828283e+0211111
 2.167348132346437e+02 2.221192216602967e+02 3.361949927610976e+01 3.409430153489630e+01 3.442249627711219e+0111111
 3.461164114871760e+01 3.476713000779077e+01 3.494647841385342e+01 3.515051511216606e+01 3.538007414655844e+0111111
 3.563599516732080e+01 3.591912200156924e+01 3.623030326218584e+01 3.657039234549114e+01 3.694024729947520e+0111111
 3.734073070019475e+01 3.777270953527700e+01 3.823705509366037e+01 3.873464286085671e+01 3.926635241914180e+0111111
 3.983306735218018e+01 4.043567515367092e+01 4.107506713966520e+01 4.175213836425903e+01 4.246778753840867e+0111111
 4.322291695164927e+01 4.401843239652790e+01 4.485524309558494e+01 4.573426163073690e+01 4.665640387493133e+0111111
 4.762258892595680e+01 4.863373904230269e+01 4.969077958097346e+01 5.079463893716989e+01 5.194624848575674e+0111111
 5.314654252444259e+01 5.439645821860221e+01 5.569693554767743e+01 5.704891725309480e+01 5.845334878764407e+0111111
 5.991117826626243e+01 6.142335641817439e+01 6.299083654033745e+01 6.461457445214870e+01 6.629552845136759e+0111111
 6.803465927121280e+01 6.983293004610465e+01 7.169130647335544e+01 7.361075643374099e+01 7.559224998391892e+0111111
 7.763675942387860e+01 7.974525925921890e+01 8.191872616449848e+01 8.415813894761087e+01 8.646447851513750e+0111111
 8.883872783863815e+01 9.128187192183874e+01 9.379489776867923e+01 9.637879435218814e+01 9.903455258415121e+0111111
 1.017631652855433e+02 1.045656271576956e+02 1.074429347541713e+02 1.103960864533227e+02 1.134260824315081e+0211111
 1.165339246369433e+02 1.197206167641680e+02 1.229871642291037e+02 1.263345741446869e+02 1.297638552970559e+0211111
 1.332760181222745e+02 1.368720746835768e+02 1.405530386491137e+02 1.443199252701886e+02 1.481737513599644e+0211111
 1.521155352726322e+02 1.561462968830209e+02 1.602670575666414e+02 1.644788401801488e+02 1.687826690422104e+0211111
 1.731795699147710e+02 1.776705699847000e+02 1.822566978458125e+02 1.869389834812527e+02 1.917184582462303e+0211111
 1.965961548510987e+02 2.015731073447673e+02 2.066503510984391e+02 2.118289227896619e+02 2.171098603866884e+0211111
 2.224942031331358e+02 5.895079296234257e+00 5.892188669805086e+00 5.890471150185324e+00 5.890015531211978e+0011111
 5.890908264222960e+00 5.893233551541969e+00 5.897073435024923e+00 5.902507879990119e+00 5.909614854829869e+0011111
 5.918470406578264e+00 5.929148732689172e+00 5.941722249259302e+00 5.956261655914452e+00 5.972835997561134e+0011111
 5.991512723189999e+00 6.012357741906921e+00 6.035435476352013e+00 6.060808913658552e+00 6.088539654091585e+0011111
 6.118687957497142e+00 6.151312787684659e+00 6.186471854855943e+00 6.224221656187825e+00 6.264617514667772e+0011111
 6.307713616276050e+00 6.353563045601389e+00 6.402217819972482e+00 6.453728922181749e+00 6.508146331873095e+0011111
 6.565519055662659e+00 6.625895156054247e+00 6.689321779210875e+00 6.755845181637794e+00 6.825510755830182e+0011111
 6.898363054935571e+00 6.974445816477728e+00 7.053801985186793e+00 7.136473734977032e+00 7.222502490112206e+0011111
 7.311928945595576e+00 7.404793086820145e+00 7.501134208512168e+00 7.600990932999731e+00 7.704401227836570e+0011111
 7.811402422808956e+00 7.922031226352621e+00 8.036323741405742e+00 8.154315480721250e+00 8.276041381661924e+0011111
 8.401535820500222e+00 8.530832626242770e+00 8.663965093999725e+00 8.800965997917874e+00 8.941867603694478e+0011111
 9.086701680689385e+00 9.235499513651112e+00 9.388291914072662e+00 9.545109231191375e+00 9.705981362646185e+0011111
 9.870937764807035e+00 1.004000746278717e+01 1.021321906015193e+01 1.039060074833506e+01 1.057218031577284e+0111111
 1.075798515676777e+01 1.094804228009087e+01 1.114237831733256e+01 1.134101953101128e+01 1.154399182244881e+0111111
 1.175132073941985e+01 1.196303148358531e+01 1.217914891771549e+01 1.239969757271159e+01 1.262470165443215e+0111111
 1.285418505033132e+01 1.308817133591499e+01 1.332668378102201e+01 1.356974535593521e+01 1.381737873732907e+0111111
 1.406960631405853e+01 1.432645019279508e+01 1.458793220351435e+01 1.485407390484140e+01 1.512489658925596e+0111111
 1.540042128816536e+01 1.568066877684631e+01 1.596565957926191e+01 1.625541397275691e+01 1.654995199263470e+0111111
 5.919563746008297e+00 5.916405658161882e+00 5.914428045355388e+00 5.913720584169145e+00 5.914370175171111e+0011111
 5.916460698942437e+00 5.920073786064511e+00 5.925289016321897e+00 5.932183996378756e+00 5.940834433579805e+0011111
 5.951314206113360e+00 5.963695429756569e+00 5.978048521407796e+00 5.994442259596584e+00 6.012943842147127e+0011111
 6.033618941161666e+00 6.056531755475637e+00 6.081745060775515e+00 6.109320257478801e+00 6.139317416187081e+0011111
 6.171795321498067e+00 6.206811513800507e+00 6.244422329259623e+00 6.284682938099779e+00 6.327647381274242e+0011111
 6.373368605605608e+00 6.421898497476164e+00 6.473287915141819e+00 6.527586719738814e+00 6.584843805049892e+0011111
 6.645107126089561e+00 6.708423726567910e+00 6.774839765286655e+00 6.844400541518992e+00 6.917150519421856e+0011111
 6.993133351526001e+00 7.072391901347454e+00 7.154968265160610e+00 7.240903792971935e+00 7.330239108730341e+0011111
 7.423014129808998e+00 7.519268085790793e+00 7.619039536588517e+00 7.722366389929278e+00 7.829285918230340e+0011111
 7.939834774892787e+00 8.054049010038511e+00 8.171964085713297e+00 8.293614890578995e+00 8.419035754116353e+0011111
 8.548260460358005e+00 8.681322261171495e+00 8.818253889110851e+00 8.959087569853429e+00 9.103855034239249e+0011111
 9.252587529928260e+00 9.405315832691052e+00 9.562070257347107e+00 9.722880668363691e+00 9.887776490130021e+0011111
 1.005678671691715e+01 1.022993992253710e+01 1.040726426971209e+01 1.058878751916386e+01 1.077453703843501e+0111111
 1.096453981045091e+01 1.115882244183227e+01 1.135741117096738e+01 1.156033187585274e+01 1.176761008170974e+0111111
 1.197927096838657e+01 1.219533937755152e+01 1.241583981968608e+01 1.264079648088431e+01 1.287023322946525e+0111111
 1.310417362240442e+01 1.334264091159162e+01 1.358565804991946e+01 1.383324769720969e+01 1.408543222598161e+0111111
 1.434223372706859e+01 1.460367401508709e+01 1.486977463376411e+01 1.514055686112539e+01 1.541604171455209e+0111111
 1.569624995570699e+01 1.598120209533654e+01 1.627091839795192e+01 1.656541888639232e+01 5.981704367019599e+0011111
 5.977971068773657e+00 5.975432225118839e+00 5.974179574953313e+00 5.974301158866868e+00 5.975880323080011e+0011111
 5.978997954980399e+00 5.983732933026762e+00 5.990162201628037e+00 5.998360842360666e+00 6.008402141743322e+0011111
 6.020357655772620e+00 6.034297271409800e+00 6.050289265195254e+00 6.068400359154444e+00 6.088695774150475e+0011111
 6.111239280824892e+00 6.136093249280918e+00 6.163318695477021e+00 6.192975322981719e+00 6.225121567357675e+0011111
 6.259814636918266e+00 6.297110551716041e+00 6.337064180896951e+00 6.379729278504794e+00 6.425158517814534e+0011111
 6.473403524269273e+00 6.524514907090413e+00 6.578542289626509e+00 6.635534338504023e+00 6.695538791636520e+0011111
 6.758602485148884e+00 6.824771379267589e+00 6.894090583226178e+00 6.966604379232344e+00 7.042356245539959e+0011111
 7.121388878667724e+00 7.203744214802975e+00 7.289463450427993e+00 7.378587062203413e+00 7.471154826142124e+0011111
 7.567205836104596e+00 7.666778521645560e+00 7.769910665240436e+00 7.876639418917708e+00 7.987001320322729e+0011111
 8.101032308237558e+00 8.218767737578826e+00 8.340242393895865e+00 8.465490507389966e+00 8.594545766473640e+0011111
 8.727441330889139e+00 8.864209844404208e+00 9.004883447101237e+00 9.149493787276596e+00 9.298072032965084e+0011111
 9.450648883104636e+00 9.607254578354910e+00 9.767918911582601e+00 9.932671238027641e+00 1.010154048516051e+0111111
 1.027455516224380e+01 1.045174336960867e+01 1.063313280765589e+01 1.081875078559310e+01 1.100862422991675e+0111111
 1.120277969264837e+01 1.140124335933418e+01 1.160404105681650e+01 1.181119826078433e+01 1.202274010311229e+0111111
 1.223869137899382e+01 1.245907655387687e+01 1.268391977020843e+01 1.291324485399467e+01 1.314707532118237e+0111111
 1.338543438386894e+01 1.362834495634522e+01 1.387582966097811e+01 1.412791083393713e+01 1.438461053077095e+0111111
 1.464595053183807e+01 1.491195234759757e+01 1.518263722376222e+01 1.545802614632141e+01 1.573813984643513e+0111111
 1.602299880520510e+01 1.631262325832612e+01 1.660703320062091e+01 6.070208951156232e+00 6.065775057971160e+0011111
 6.062550798966484e+00 6.060630571873345e+00 6.060103965747994e+00 6.061053822467639e+00 6.063560256813902e+0011111
 6.067701414107483e+00 6.073553542711198e+00 6.081191063037448e+00 6.090686633265224e+00 6.102111211957720e+0011111
 6.115534117759343e+00 6.131023086338986e+00 6.148644324734083e+00 6.168462563242503e+00 6.190541104996433e+0011111
 6.214941873346556e+00 6.241725457174756e+00 6.270951154246702e+00 6.302677012709028e+00 6.336959870828157e+0011111
 6.373855395063020e+00 6.413418116557316e+00 6.455701467104046e+00 6.500757816160595e+00 6.548638494056117e+0011111
 6.599393826790011e+00 6.653073166563498e+00 6.709724920302220e+00 6.769396577076162e+00 6.832134734470663e+0011111
 6.897985123956913e+00 6.966992635308728e+00 7.039201340109800e+00 7.114654514392769e+00 7.193394660449968e+0011111
 7.275463527852673e+00 7.360902133714650e+00 7.449750782233169e+00 7.542049083539531e+00 7.637835971888855e+0011111
 7.737149723217865e+00 7.840027972098070e+00 7.946507728109538e+00 8.056625391659827e+00 8.170416769271879e+0011111
 8.287917088362036e+00 8.409161011529728e+00 8.534182650378998e+00 8.663015578890123e+00 8.795692846359957e+0011111
 8.932246989928487e+00 9.072710046707181e+00 9.217113565525489e+00 9.365488618309930e+00 9.517865811110532e+0011111
 9.674275294787831e+00 9.834746775372881e+00 9.999309524114153e+00 1.016799238722115e+01 1.034082379531764e+0111111
 1.051783177261479e+01 1.069904394581370e+01 1.088448755274868e+01 1.107418945077943e+01 1.126817612494174e+0111111
 1.146647369586523e+01 1.166910792746669e+01 1.187610423442594e+01 1.208748768945341e+01 1.230328303035508e+0111111
 1.252351466690290e+01 1.274820668751685e+01 1.297738286576526e+01 1.321106666668909e+01 1.344928125295705e+0111111
 1.369204949085596e+01 1.393939395612305e+01 1.419133693962431e+01 1.444790045288480e+01 1.470910623347502e+0111111
 1.497497575025910e+01 1.524553020850715e+01 1.552079055487904e+01 1.580077748228077e+01 1.608551143459954e+0111111
 1.637501261132041e+01 1.666930097202789e+01 6.178208349232817e+00 6.173028877309128e+00 6.169073718617317e+0011111
 6.166440206735011e+00 6.165219696749325e+00 6.165494602663440e+00 6.167344316061880e+00 6.170846292994302e+0011111
 6.176076124643003e+00 6.183107604609808e+00 6.192012793017885e+00 6.202862077611248e+00 6.215724232023547e+0011111
 6.230666471376617e+00 6.247754505357583e+00 6.267052588916433e+00 6.288623570713544e+00 6.312528945865359e+0011111
 6.338828895535642e+00 6.367582318523758e+00 6.398846881617862e+00 6.432679058396234e+00 6.469134166367830e+0011111
 6.508266402600857e+00 6.550128877913732e+00 6.594773649698063e+00 6.642251753440330e+00 6.692613233004501e+0011111
 6.745907169734494e+00 6.802181710433717e+00 6.861484094272784e+00 6.923860678677040e+00 6.989356964240412e+0011111
 7.058017618710592e+00 7.129886500088158e+00 7.205006678879474e+00 7.283420459541846e+00 7.365169401156505e+0011111
 7.450294337364021e+00 7.538835395594215e+00 7.630832015621633e+00 7.726322967475324e+00 7.825346368730854e+0011111
 7.927939701211056e+00 8.034139827119997e+00 8.143983004633995e+00 8.257504902972810e+00 8.374740616971552e+0011111
 8.495724681174275e+00 8.620491083468849e+00 8.749073278280864e+00 8.881504199344729e+00 9.017816272068947e+0011111
 9.158041425510785e+00 9.302211103976223e+00 9.450356278259330e+00 9.602507456535360e+00 9.758694694920562e+0011111
 9.918947607710747e+00 1.008329537731223e+01 1.025176676387471e+01 1.042439011463870e+01 1.060119337300747e+0111111
 1.078220408735304e+01 1.096744941956690e+01 1.115695615336382e+01 1.135075070234798e+01 1.154885911784973e+0111111
 1.175130709654136e+01 1.195811998783890e+01 1.216932280109848e+01 1.238494021261325e+01 1.260499657241848e+0111111
 1.282951591091115e+01 1.305852194529022e+01 1.329203808582343e+01 1.353008744194721e+01 1.377269282820414e+0111111
 1.401987677002439e+01 1.427166150935535e+01 1.452806901014504e+01 1.478912096368352e+01 1.505483879380789e+0111111
 1.532524366197305e+01 1.560035647219564e+01 1.588019787587200e+01 1.616478827647634e+01 1.645414783414196e+0111111
 1.674829647012862e+01 6.301211317803463e+00 6.295279234291947e+00 6.290585131711572e+00 6.287229385565940e+0011111
 6.285305221121356e+00 6.284894700796763e+00 6.286076558996572e+00 6.288927622797120e+00 6.293522881350746e+0011111
 6.299935551956883e+00 6.308237142995286e+00 6.318497513903643e+00 6.330784932370546e+00 6.345166134646069e+0011111
 6.361706386349894e+00 6.380469500445431e+00 6.401517901552040e+00 6.424912672796101e+00 6.450713599023552e+0011111
 6.478979208204137e+00 6.509766811116782e+00 6.543132539399881e+00 6.579131382047258e+00 6.617817220425441e+0011111
 6.659242861884543e+00 6.703460072030537e+00 6.750519605723900e+00 6.800471236865277e+00 6.853363787025623e+0011111
 6.909245152976710e+00 6.968162333171820e+00 7.030161453227095e+00 7.095287790448930e+00 7.163585797451400e+0011111
 7.235099124905330e+00 7.309870643457930e+00 7.387942464860624e+00 7.469355962339786e+00 7.554151790244237e+0011111
 7.642369903000843e+00 7.734049573408553e+00 7.829229410299001e+00 7.927947375590953e+00 8.030240800764528e+0011111
 8.136146402779122e+00 8.245700299458315e+00 8.358938024364416e+00 8.475894541182708e+00 8.596604257635892e+0011111
 8.721101038947943e+00 8.849418220874675e+00 8.981588622318846e+00 9.117644557546393e+00 9.257617848945948e+0011111
 9.401539840181592e+00 9.549441401196747e+00 9.701352942152031e+00 9.857304424253558e+00 1.001732536986775e+0111111
 1.018144487233465e+01 1.034969160548888e+01 1.052209383290062e+01 1.069867941684614e+01 1.087947582701711e+0111111
 1.106451014897924e+01 1.125380909238824e+01 1.144739899897195e+01 1.164530585028717e+01 1.184755527525883e+0111111
 1.205417255750868e+01 1.226518264248175e+01 1.248061014437634e+01 1.270047935288520e+01 1.292481423975372e+0111111
 1.315363846516158e+01 1.338697538393329e+01 1.362484805158420e+01 1.386727923020627e+01 1.411429139419993e+0111111
 1.436590673585614e+01 1.462214717079414e+01 1.488303434325904e+01 1.514858963128469e+01 1.541883415172401e+0111111
 1.569378876515406e+01 1.597347408065659e+01 1.625791046048030e+01 1.654711802458752e+01 1.684111665508829e+0111111
 6.436119738014018e+00 6.429446693330182e+00 6.424024157271202e+00 6.419955546556037e+00 6.417335995899738e+0011111
 6.416247309415106e+00 6.416767622790937e+00 6.418973191858721e+00 6.422938462384498e+00 6.428736133852277e+0011111
 6.436437220422768e+00 6.446111109194165e+00 6.457825615891261e+00 6.471647038106458e+00 6.487640206211403e+0011111
 6.505868532056393e+00 6.526394055566598e+00 6.549277489342125e+00 6.574578261362004e+00 6.602354555887833e+0011111
 6.632663352658293e+00 6.665560464459737e+00 6.701100573154744e+00 6.739337264245073e+00 6.780323060041917e+0011111
 6.824109451511634e+00 6.870746928862149e+00 6.920285010930787e+00 6.972772273430942e+00 7.028256376113398e+0011111
 7.086784088891878e+00 7.148401316983088e+00 7.213153125106301e+00 7.281083760786183e+00 7.352236676800040e+0011111
 7.426654552808091e+00 7.504379316203941e+00 7.585452162219587e+00 7.669913576095171e+00 7.757803354509397e+0011111
 7.849160610428300e+00 7.944023797897579e+00 8.042430729408222e+00 8.144418592129083e+00 8.250023963597641e+0011111
 8.359282826891107e+00 8.472230585299444e+00 8.588902076519449e+00 8.709331586389535e+00 8.833552862183652e+0011111
 8.961599125480989e+00 9.093503084628594e+00 9.229296946812987e+00 9.369012429755088e+00 9.512680773043577e+0011111
 9.660332749120045e+00 9.811998673929590e+00 9.967708417249144e+00 1.012749141270503e+01 1.029137666749276e+0111111
 1.045939277180817e+01 1.063156790800186e+01 1.080792985946679e+01 1.098850601926759e+01 1.117332339852239e+0111111
 1.136240863454493e+01 1.155578799875562e+01 1.175348740436996e+01 1.195553241387204e+01 1.216194824627987e+0111111
 1.237275978421103e+01 1.258799158075406e+01 1.280766786615320e+01 1.303181255431239e+01 1.326044924912461e+0111111
 1.349360125063211e+01 1.373129156102400e+01 1.397354289047533e+01 1.422037766283402e+01 1.447181802115963e+0111111
 1.472788583311936e+01 1.498860269624546e+01 1.525398994305933e+01 1.552406864606453e+01 1.579885962261580e+0111111
 1.607838343966490e+01 1.636266041838940e+01 1.665171063870705e+01 1.694555394367868e+01 6.580705807547643e+0011111
 6.573312302043332e+00 6.567180762359880e+00 6.562417621327524e+00 6.559119917549650e+00 6.557369205253862e+0011111
 6.557243106943234e+00 6.558817383721792e+00 6.562166002173597e+00 6.567361198152389e+00 6.574473537635599e+0011111
 6.583571974792441e+00 6.594723907411328e+00 6.607995229825919e+00 6.623450383471389e+00 6.641152405198768e+0011111
 6.661162973465083e+00 6.683542452513495e+00 6.708349934649351e+00 6.735643280712587e+00 6.765479173228496e+0011111
 6.797913137800285e+00 6.832999565344883e+00 6.870791762623786e+00 6.911341984634488e+00 6.954701465751866e+0011111
 7.000920449677149e+00 7.050048218246630e+00 7.102133119150282e+00 7.157222592609830e+00 7.215363197060576e+0011111
 7.276600633882659e+00 7.340979771222902e+00 7.408544666947532e+00 7.479338590764069e+00 7.553404045548429e+0011111
 7.630782787912230e+00 7.711515848042685e+00 7.795643548846892e+00 7.883205524429888e+00 7.974240737935171e+0011111
 8.068787498774222e+00 8.166883479270901e+00 8.268565730745349e+00 8.373870699060141e+00 8.482834239650881e+0011111
 8.595491632062869e+00 8.711877594012998e+00 8.832026294996506e+00 8.955971369456973e+00 9.083745929536164e+0011111
 9.215382577420801e+00 9.350913417302246e+00 9.490370066963354e+00 9.633783669007505e+00 9.781184901743080e+0011111
 9.932603989736965e+00 1.008807071404922e+01 1.024761442216035e+01 1.041126403760407e+01 1.057904806931454e+0111111
 1.075099462070003e+01 1.092713139845247e+01 1.110748572110188e+01 1.129208452732580e+01 1.148095438402173e+0111111
 1.167412149415111e+01 1.187161170436307e+01 1.207345051240566e+01 1.227966307433117e+01 1.249027421150397e+0111111
 1.270530841741618e+01 1.292478986431881e+01 1.314874240967398e+01 1.337718960254383e+01 1.361015469237615e+0111111
 1.384766063050561e+01 1.408973007633492e+01 1.433638540428566e+01 1.458764870929161e+01 1.484354181215153e+0111111
 1.510408626474483e+01 1.536930335511584e+01 1.563921411242866e+01 1.591383931179936e+01 1.619319947900669e+0111111
 1.647731489508703e+01 1.676620560081619e+01 1.705989140108116e+01 6.733313590355214e+00 6.725224190260282e+0011111
 6.718407276922991e+00 6.712972231234660e+00 6.709017971734951e+00 6.706625864395034e+00 6.705873046929947e+0011111
 6.706834810806491e+00 6.709584668302401e+00 6.714194416312891e+00 6.720734198746318e+00 6.729272599720654e+0011111
 6.739876641925155e+00 6.752611846830270e+00 6.767542299980613e+00 6.784730697921140e+00 6.804238393186132e+0011111
 6.826125437433949e+00 6.850450622807827e+00 6.877271521602133e+00 6.906644524311790e+00 6.938624876138842e+0011111
 6.973266712028670e+00 7.010623090304428e+00 7.050746024965951e+00 7.093686516715682e+00 7.139494582771990e+0011111
 7.188219285526539e+00 7.239908760099526e+00 7.294610240845497e+00 7.352370086856639e+00 7.413233806511389e+0011111
 7.477246081111339e+00 7.544450787648168e+00 7.614891020740209e+00 7.688609113775607e+00 7.765646659297946e+0011111
 7.846044528667364e+00 7.929842891029457e+00 8.017081231621818e+00 8.107798376447814e+00 8.202032502819506e+0011111
 8.299821146847577e+00 8.401201228328192e+00 8.506209066077869e+00 8.614880392751175e+00 8.727250369178927e+0011111
 8.843353598244706e+00 8.963224138318177e+00 9.086895516262564e+00 9.214400740031904e+00 9.345772310874393e+0011111
 9.481042235157011e+00 9.620242035825044e+00 9.763402763510896e+00 9.910555007304929e+00 1.006172890520140e+0111111
 1.021695415423120e+01 1.037626002029250e+01 1.053967534769166e+01 1.070722856840320e+01 1.087894771106046e+0111111
 1.105486040968617e+01 1.123499391217137e+01 1.141937508851313e+01 1.160803043881830e+01 1.180098610108199e+0111111
 1.199826785874871e+01 1.219990114806359e+01 1.240591106522045e+01 1.261632237331468e+01 1.283115950910626e+0111111
 1.305044658960047e+01 1.327420741845172e+01 1.350246549219662e+01 1.373524400632162e+01 1.397256586117143e+0111111
 1.421445366770237e+01 1.446092975308670e+01 1.471201616617183e+01 1.496773468279983e+01 1.522810681099091e+0111111
 1.549315379599652e+01 1.576289662522375e+01 1.603735603303831e+01 1.631655250544668e+01 1.660050628466340e+0111111
 1.688923737356616e+01 1.718276554004158e+01 6.892679596955388e+00 6.883920584939145e+00 6.876443666346598e+0011111
 6.870361061419874e+00 6.865773523424814e+00 6.862762274276908e+00 6.861404029402181e+00 6.861773677188146e+0011111
 6.863944344047534e+00 6.867987456591479e+00 6.873972801027161e+00 6.881968579899603e+00 6.892041466299549e+0011111
 6.904256655658608e+00 6.918677915249194e+00 6.935367631506081e+00 6.954386855278736e+00 6.975795345121861e+0011111
 6.999651608724729e+00 7.026012942575545e+00 7.054935469952444e+00 7.086474177326687e+00 7.120682949260098e+0011111
 7.157614601873204e+00 7.197320921203667e+00 7.239852706750166e+00 7.285259760536640e+00 7.333590935780755e+0011111
 7.384894166559334e+00 7.439216493810743e+00 7.496604090384061e+00 7.557102285176547e+00 7.620755586396934e+0011111
 7.687607703991667e+00 7.757701571269682e+00 7.831079365759292e+00 7.907782529330091e+00 7.987851787610373e+0011111
 8.071327168730159e+00 8.158248021417769e+00 8.248653032477270e+00 8.342580243672092e+00 8.440067068039681e+0011111
 8.541150305660743e+00 8.645866158904965e+00 8.754250247174593e+00 8.866337621166700e+00 8.982162776672624e+0011111
 9.101759667933566e+00 9.225161720570137e+00 9.352401844101882e+00 9.483512444073376e+00 9.618525433802386e+0011111
 9.757472245763887e+00 9.900383842624549e+00 1.004729072794055e+01 1.019822295653191e+01 1.035321014454519e+0111111
 1.051228147921561e+01 1.067546572834113e+01 1.084279124947729e+01 1.101428599886440e+01 1.118997754009634e+0111111
 1.136989305253955e+01 1.155405933951236e+01 1.174250283623219e+01 1.193524961768494e+01 1.213232541065421e+0111111
 1.233375559349006e+01 1.253956520368981e+01 1.274977894728722e+01 1.296442120555495e+01 1.318351604152755e+0111111
 1.340708720635054e+01 1.363515814546126e+01 1.386775200460681e+01 1.410489163570503e+01 1.434659960255264e+0111111
 1.459289818638631e+01 1.484380939130068e+01 1.509935494952829e+01 1.535955632658542e+01 1.562443472628892e+0111111
 1.589401109564611e+01 1.616830612962446e+01 1.644734027580198e+01 1.673113373890397e+01 1.701970648522880e+0111111
 1.731307824696555e+01 7.057816306060883e+00 7.048413653435675e+00 7.040301979074741e+00 7.033596286315547e+0011111
 7.028399126572842e+00 7.024791599192849e+00 7.022850015621710e+00 7.022648868899673e+00 7.024260902322906e+0011111
 7.027757217474295e+00 7.033207251424245e+00 7.040678855212821e+00 7.050238369074579e+00 7.061950672226198e+0011111
 7.075879230676049e+00 7.092086143116464e+00 7.110632184962114e+00 7.131576850604531e+00 7.154978393952772e+0011111
 7.180893867331331e+00 7.209379158806374e+00 7.240489028008879e+00 7.274277140522811e+00 7.310796100903330e+0011111
 7.350097484388363e+00 7.392231867363618e+00 7.437248856639417e+00 7.485197117594258e+00 7.536124401237472e+0011111
 7.590077570242430e+00 7.647102623996082e+00 7.707244722711704e+00 7.770548210646949e+00 7.837056638468189e+0011111
 7.906812784799977e+00 7.979858676995992e+00 8.056235611166677e+00 8.135984171496055e+00 8.219144248879463e+0011111
 8.305755058911537e+00 8.395855159252919e+00 8.489482473998875e+00 8.586674306634754e+00 8.687467339735775e+0011111
 8.791897661975428e+00 8.900000782824753e+00 9.011811646632543e+00 9.127364646255780e+00 9.246693636258092e+0011111
 9.369831945692832e+00 9.496812390485880e+00 9.627667285433805e+00 9.762428455832154e+00 9.901127248746917e+0011111
 1.004379454394319e+01 1.019046076448329e+01 1.034115588700707e+01 1.049590945170578e+01 1.065475057200012e+0111111
 1.081770794393474e+01 1.098480985529759e+01 1.115608419447537e+01 1.133155845905421e+01 1.151125976417373e+0111111
 1.169521485064465e+01 1.188345009283698e+01 1.207599150634742e+01 1.227286475545338e+01 1.247409516036134e+0111111
 1.267970770425566e+01 1.288972704015593e+01 1.310417749758806e+01 1.332308308907626e+01 1.354646751646140e+0111111
 1.377435417705180e+01 1.400676616961137e+01 1.424372630019152e+01 1.448525708781061e+01 1.473138076998704e+0111111
 1.498211930812971e+01 1.523749439279119e+01 1.549752744878717e+01 1.576223964018775e+01 1.603165187518213e+0111111
 1.630578481082397e+01 1.658465885765785e+01 1.686829418423282e+01 1.715671072150547e+01 1.744992816713556e+0111111
 7.227938718891256e+00 7.217918047665736e+00 7.209196532224307e+00 7.201891834472264e+00 7.196108245819367e+0011111
 7.191926777557844e+00 7.189423393737718e+00 7.188672255573239e+00 7.189745785764368e+00 7.192714729965190e+0011111
 7.197648215504185e+00 7.204613807469126e+00 7.213677562274048e+00 7.224904078826607e+00 7.238356547411725e+0011111
 7.254096796407510e+00 7.272185336942376e+00 7.292681405600864e+00 7.315643005602165e+00 7.341126975499142e+0011111
 7.369188982455343e+00 7.399883554322763e+00 7.433264135564409e+00 7.469383119369708e+00 7.508291878577875e+0011111
 7.550040795452260e+00 7.594679290349697e+00 7.642255849327661e+00 7.692818050731407e+00 7.746412590803946e+0011111
 7.803085308357312e+00 7.862881208545866e+00 7.925844485778444e+00 7.992018545805916e+00 8.061446027019164e+0011111
 8.134168820990620e+00 8.210228092291805e+00 8.289664297616991e+00 8.372517204242705e+00 8.458825907850645e+0011111
 8.548628849741032e+00 8.641963833461366e+00 8.738868040875136e+00 8.839378047693769e+00 8.943529838493415e+0011111
 9.051358821237640e+00 9.162899841326656e+00 9.278187195191251e+00 9.397254643450177e+00 9.520135423648540e+0011111
 9.646862262592988e+00 9.777467388300030e+00 9.911982541572778e+00 1.005043898721968e+01 1.019286752492961e+0111111
 1.033929849981603e+01 1.048976181264314e+01 1.064428692974566e+01 1.080290289265324e+01 1.096563832743167e+0111111
 1.113252145374967e+01 1.130358009368249e+01 1.147884168320860e+01 1.165833328210339e+01 1.184208157027548e+0111111
 1.203011286254757e+01 1.222245311664130e+01 1.241912794056674e+01 1.262016259980948e+01 1.282558202432159e+0111111
 1.303541081532404e+01 1.324967325192566e+01 1.346839329756558e+01 1.369159460628458e+01 1.391930052883099e+0111111
 1.415153411860619e+01 1.438831813745578e+01 1.462967506131022e+01 1.487562708568079e+01 1.512619613101466e+0111111
 1.538140384791408e+01 1.564127162222348e+01 1.590582057998956e+01 1.617507159229635e+01 1.644904527998188e+0111111
 1.672776201823733e+01 1.701124194109423e+01 1.729950494580229e+01 1.759257069710074e+01 7.402411122817602e+0011111
 7.391796737818913e+00 7.382489147855471e+00 7.374608601032010e+00 7.368261069621042e+00 7.363527470450054e+0011111
 7.360483410363337e+00 7.359202712381325e+00 7.359757530498331e+00 7.362218297146290e+00 7.366653833811712e+0011111
 7.373131416197388e+00 7.381716825799397e+00 7.392474399427186e+00 7.405467076719267e+00 7.420756445719088e+0011111
 7.438402786578255e+00 7.458465113460693e+00 7.481001214721034e+00 7.506067691431399e+00 7.533719994330354e+0011111
 7.564012459265085e+00 7.596998341197090e+00 7.632729846838278e+00 7.671258165982418e+00 7.712633501593492e+0011111
 7.756905098710483e+00 7.804121272224526e+00 7.854329433581663e+00 7.907576116463302e+00 7.963907003097693e+0011111
 8.023366968629832e+00 8.086000063486127e+00 8.151849546602785e+00 8.220957915333171e+00 8.293366925605648e+0011111
 8.369117611395868e+00 8.448250303538931e+00 8.530804647906953e+00 8.616819622976180e+00 8.706333556807479e+0011111
 8.799384143462595e+00 8.896008458878352e+00 8.996242976220094e+00 9.100123580734163e+00 9.207685584119007e+0011111
 9.318963738434132e+00 9.433992249563930e+00 9.552804790254100e+00 9.675434512737274e+00 9.801914060962861e+0011111
 9.932275582446744e+00 1.006655073975547e+01 1.020477072163797e+01 1.034696625381870e+01 1.049316760946444e+0111111
 1.064340461933730e+01 1.079770668164528e+01 1.095610277160094e+01 1.111862145070032e+01 1.128529087573024e+0111111
 1.145613880751552e+01 1.163119261941475e+01 1.181047930557295e+01 1.199402548894092e+01 1.218185742906857e+0111111
 1.237400102968037e+01 1.257048184604053e+01 1.277132509211542e+01 1.297655564753919e+01 1.318619806439078e+0111111
 1.340027657378718e+01 1.361881509230019e+01 1.384183722820208e+01 1.406936628754599e+01 1.430142528008598e+0111111
 1.453803692504318e+01 1.477922365672153e+01 1.502500762997930e+01 1.527541072556000e+01 1.553045455528783e+0111111
 1.579016046713150e+01 1.605454955014145e+01 1.632364263926246e+01 1.659746032002843e+01 1.687602293313999e+0111111
 1.715935057893073e+01 1.744746312172454e+01 1.774038019408687e+01 7.580713525035423e+00 7.569528585370246e+0011111
 7.559657455732889e+00 7.551222895568447e+00 7.544332541301575e+00 7.539067279796257e+00 7.535502442380253e+0011111
 7.533711572793759e+00 7.533766492013745e+00 7.535737360040866e+00 7.539692734785987e+00 7.545699628196176e+0011111
 7.553823559760426e+00 7.564128607532641e+00 7.576677456803952e+00 7.591531453642114e+00 7.608750688907396e+0011111
 7.628393955204032e+00 7.650518819927393e+00 7.675181673698040e+00 7.702437766289405e+00 7.732341241195614e+0011111
 7.764945168886007e+00 7.800301578793546e+00 7.838461490085591e+00 7.879474941264917e+00 7.923391018649037e+0011111
 7.970257883774224e+00 8.020122799769462e+00 8.073032156745718e+00 8.129031496241300e+00 8.188165534765862e+0011111
 8.250478186481534e+00 8.316012585059077e+00 8.384811104745221e+00 8.456915380675287e+00 8.532366328464342e+0011111
 8.611204163107669e+00 8.693468417220787e+00 8.779197958647075e+00 8.868431007460302e+00 8.961205152387388e+0011111
 9.057557366676050e+00 9.157524023430863e+00 9.261140911635474e+00 9.368443263814957e+00 9.479465743045525e+0011111
 9.594242464052172e+00 9.712807011513979e+00 9.835192452525529e+00 9.961431348675506e+00 1.009155576775676e+0111111
 1.022559729512138e+01 1.036358704469279e+01 1.050555566964776e+01 1.065153337277988e+01 1.080154991655631e+0111111
 1.095563463287840e+01 1.111381643255630e+01 1.127612381450908e+01 1.144258487469820e+01 1.161322731480518e+0111111
 1.178807845066201e+01 1.196716522044218e+01 1.215051419262179e+01 1.233815157371787e+01 1.253010321581171e+0111111
 1.272639462386471e+01 1.292705096283383e+01 1.313209706459279e+01 1.334155743466659e+01 1.355545625878448e+0111111
 1.377381740925827e+01 1.399666445119122e+01 1.422402064852335e+01 1.445590896991810e+01 1.469235209449625e+0111111
 1.493337241742100e+01 1.517899205534004e+01 1.542923285168822e+01 1.568411638185590e+01 1.594366395822670e+0111111
 1.620789663508976e+01 1.647683521342824e+01 1.675050024559094e+01 1.702891203984768e+01 1.731209066483401e+0111111
 1.760005595388788e+01 1.789282750928093e+01 7.762411836030608e+00 7.750678322713601e+00 7.740265287228487e+0011111
 7.731297863650177e+00 7.723885232244671e+00 7.718108208703896e+00 7.714041828308356e+00 7.711759356880178e+0011111
 7.711332352803474e+00 7.712830726562903e+00 7.716322797825877e+00 7.721875350119241e+00 7.729553683169410e+0011111
 7.739421662986498e+00 7.751541769778838e+00 7.765975143790914e+00 7.782781629155693e+00 7.802019815854981e+0011111
 7.823747079877889e+00 7.848019621665688e+00 7.874892502928678e+00 7.904419681916089e+00 7.936654047217599e+0011111
 7.971647450170420e+00 8.009450738856222e+00 8.050113819380419e+00 8.093685625550172e+00 8.140214162089096e+0011111
 8.189746541912047e+00 8.242329010993585e+00 8.298006972354690e+00 8.356825009201613e+00 8.418826907247940e+0011111
 8.484055676251423e+00 8.552553570796423e+00 8.624362110351409e+00 8.699522098630863e+00 8.778073642288993e+0011111
 8.860056168972610e+00 8.945508444758753e+00 9.034468591002202e+00 9.126974100616408e+00 9.223061853810899e+0011111
 9.322768133307299e+00 9.426128639054463e+00 9.533178502462810e+00 9.643952300177656e+00 9.758484067408917e+0011111
 9.876807310835247e+00 9.998955021099516e+00 1.012495968491084e+01 1.025485329676903e+01 1.038866737032611e+0111111
 1.052643294939828e+01 1.066818061864203e+01 1.081394051390688e+01 1.096374233227726e+01 1.111761534181491e+0111111
 1.127558839101238e+01 1.143768991796958e+01 1.160394795930190e+01 1.177439016027350e+01 1.194904379045200e+0111111
 1.212793573400300e+01 1.231109250487975e+01 1.249854025666602e+01 1.269030479003144e+01 1.288641155998356e+0111111
 1.308688568292330e+01 1.329175194350972e+01 1.350103480134147e+01 1.371475839745953e+01 1.393294656067823e+0111111
 1.415562281374941e+01 1.438281037936539e+01 1.461453218600543e+01 1.485081087363165e+01 1.509166879923801e+0111111
 1.533712804225797e+01 1.558721040983453e+01 1.584193744195749e+01 1.610133041647155e+01 1.636541035396025e+0111111
 1.663419802250756e+01 1.690771394234366e+01 1.718597839037567e+01 1.746901140460879e+01 1.775683278846031e+0111111
 1.804946211496937e+01 7.947143040502587e+00 7.934881452486922e+00 7.923946565042324e+00 7.914465835502114e+0011111
 7.906549984898282e+00 7.900279775993402e+00 7.895729945901158e+00 7.892973496557754e+00 7.892081820983920e+0011111
 7.893124556492804e+00 7.896169757320557e+00 7.901283958757438e+00 7.908532227085386e+00 7.917978207681620e+0011111
 7.929684171297652e+00 7.943711058544066e+00 7.960118522620930e+00 7.978964970345778e+00 8.000307601535139e+0011111
 8.024202446800045e+00 8.050704403818294e+00 8.079867272145819e+00 8.111743786630411e+00 8.146385649489149e+0011111
 8.183843561110026e+00 8.224167249635707e+00 8.267405499386136e+00 8.313606178173552e+00 8.362816263561339e+0011111
 8.415081868117246e+00 8.470448263706142e+00 8.528959904868561e+00 8.590660451326627e+00 8.655592789657865e+0011111
 8.723799054175281e+00 8.795320663332145e+00 8.870198326733961e+00 8.948472040879007e+00 9.030181127338890e+0011111
 9.115364249981702e+00 9.204059431576390e+00 9.296304069853987e+00 9.392134953046046e+00 9.491588274919959e+0011111
 9.594699649329508e+00 9.701504124298982e+00 9.812036195658942e+00 9.926329820249697e+00 1.004441842870925e+0111111
 1.016633493786156e+01 1.029211176271948e+01 1.042178082811716e+01 1.055537357998619e+01 1.069292099628783e+0111111
 1.083445359761480e+01 1.098000145747435e+01 1.112959421226487e+01 1.128326107095683e+01 1.144103082448849e+0111111
 1.160293185488788e+01 1.176899214412927e+01 1.193923928273499e+01 1.211370047813131e+01 1.229240256276621e+0111111
 1.247537200199883e+01 1.266263490176749e+01 1.285421701604431e+01 1.305014375408393e+01 1.325044018747342e+0111111
 1.345513105698944e+01 1.366424077927049e+01 1.387779345330909e+01 1.409581286677083e+01 1.431832250214573e+0111111
 1.454534554273753e+01 1.477690487849572e+01 1.501302311169650e+01 1.525372256247642e+01 1.549902527422424e+0111111
 1.574895301883505e+01 1.600352730183138e+01 1.626276936735504e+01 1.652670020476007e+01 1.679534055585301e+0111111
 1.706871090939011e+01 1.734683151103777e+01 1.762972236833989e+01 1.791740325500487e+01 1.820989371508945e+0111111
 8.134600833867072e+00 8.121830263682799e+00 8.110392170344337e+00 8.100416293941262e+00 8.092014885154006e+0011111
 8.085268720934963e+00 8.080252329354787e+00 8.077038470911917e+00 8.075698203630472e+00 8.076300944973227e+0011111
 8.078914530730039e+00 8.083605271041986e+00 8.090438003719143e+00 8.099476150467098e+00 8.110781854231435e+0011111
 8.124415870603354e+00 8.140437642998700e+00 8.158905380665402e+00 8.179876096611977e+00 8.203405644175152e+0011111
 8.229548752252235e+00 8.258359059229639e+00 8.289889145645262e+00 8.324190565624681e+00 8.361313877133904e+0011111
 8.401308671091826e+00 8.444223599386701e+00 8.490106401839920e+00 8.539003932159833e+00 8.590962182928939e+0011111
 8.646026309663588e+00 8.704240653987295e+00 8.765648765955078e+00 8.830293425565698e+00 8.898216663497204e+0011111
 8.969459781099177e+00 9.044063369674335e+00 9.122067329079773e+00 9.203510885677639e+00 9.288432609662877e+0011111
 9.376870431795007e+00 9.468861659558909e+00 9.564442992779002e+00 9.663650538710012e+00 9.766519826625750e+0011111
 9.873085821926770e+00 9.983382939787315e+00 1.009744506978548e+01 1.021530557955932e+01 1.033699731144240e+0111111
 1.046255260838633e+01 1.059200332549314e+01 1.072538084117041e+01 1.086271606795206e+01 1.100403946299720e+0111111
 1.114938103827805e+01 1.129877037046832e+01 1.145223661054231e+01 1.160980849309435e+01 1.177151434538982e+0111111
 1.193738209615532e+01 1.210743928411844e+01 1.228171306630554e+01 1.246023022610498e+01 1.264301718110523e+0111111
 1.283009999071467e+01 1.302150436357057e+01 1.321725566474487e+01 1.341737892275327e+01 1.362189883637395e+0111111
 1.383083978128318e+01 1.404422581651270e+01 1.426208069073587e+01 1.448442784838746e+01 1.471129043562297e+0111111
 1.494269130612209e+01 1.517865302674232e+01 1.541919788302639e+01 1.566434788456923e+01 1.591412477024804e+0111111
 1.616855001332047e+01 1.642764482639436e+01 1.669143016627437e+01 1.695992673868680e+01 1.723315500288981e+0111111
 1.751113517616906e+01 1.779388723822487e+01 1.808143093545303e+01 1.837378578512198e+01 8.324520456365109e+0011111
 8.311259501972206e+00 8.299336430972254e+00 8.288883141025854e+00 8.280013327577118e+00 8.272807761268176e+0011111
 8.267340755831988e+00 8.263684867827834e+00 8.261910959942668e+00 8.262088261510108e+00 8.264284426321247e+0011111
 8.268565587819378e+00 8.274996411782519e+00 8.283640146603847e+00 8.294558671281422e+00 8.307812541231426e+0011111
 8.323461032033808e+00 8.341562181219130e+00 8.362172828199480e+00 8.385348652442611e+00 8.411144214412953e+0011111
 8.439613059103865e+00 8.470807627701861e+00 8.504779314732350e+00 8.541578526710680e+00 8.581254710439987e+0011111
 8.623856380323474e+00 8.669431144717967e+00 8.718025731357619e+00 8.769686011879394e+00 8.824457025479456e+0011111
 8.882383001733253e+00 8.943507382609445e+00 9.007872843708567e+00 9.075521314756607e+00 9.146493999382507e+0011111
 9.220831394208524e+00 9.298573307280478e+00 9.379758875864965e+00 9.464426583638868e+00 9.552614277296065e+0011111
 9.644359182594641e+00 9.739697919867513e+00 9.838666519018368e+00 9.941300434023285e+00 1.004763455695797e+0111111
 1.015770323157021e+01 1.027154026641475e+01 1.038917894756861e+01 1.051065205094345e+01 1.063599185421019e+0111111
 1.076523014835141e+01 1.089839824885638e+01 1.103552700657150e+01 1.117664681822009e+01 1.132178763660371e+0111111
 1.147097898049737e+01 1.162424994424996e+01 1.178162920710015e+01 1.194314504221997e+01 1.210882532549393e+0111111
 1.227869755126686e+01 1.245278883590429e+01 1.263112591362853e+01 1.281373515423546e+01 1.300064257070942e+0111111
 1.319187382657306e+01 1.338745424303754e+01 1.358740880595972e+01 1.379176217261196e+01 1.400053867827190e+0111111
 1.421376234263668e+01 1.443145687606832e+01 1.465364568567517e+01 1.488035188123491e+01 1.511159828096365e+0111111
 1.534740741713712e+01 1.558780154156723e+01 1.583280263093975e+01 1.608243239201662e+01 1.633671226670768e+0111111
 1.659566343701522e+01 1.685930682985660e+01 1.712766312176621e+01 1.740075274348379e+01 1.767859588442919e+0111111
 1.796121249706959e+01 1.824862230118108e+01 1.854084478800761e+01 8.516674384286205e+00 8.502939838677033e+0011111
 8.490548512906626e+00 8.479634359352261e+00 8.470312400224586e+00 8.462663345394585e+00 8.456761258536703e+0011111
 8.452678465737687e+00 8.450485615404531e+00 8.450251736056929e+00 8.452044291947674e+00 8.455929236498081e+0011111
 8.461971063567969e+00 8.470232856602371e+00 8.480776335711720e+00 8.493661902755626e+00 8.508948684503613e+0011111
 8.526694573952952e+00 8.546956269883331e+00 8.569789314728830e+00 8.595248130846912e+00 8.623386055261024e+0011111
 8.654255372952106e+00 8.687907348770523e+00 8.724392258037478e+00 8.763759415901060e+00 8.806057205509711e+0011111
 8.851333105061837e+00 8.899633726267268e+00 8.951004877152236e+00 9.005491481675641e+00 9.063137650867056e+0011111
 9.123986713429289e+00 9.188081236537011e+00 9.255463045941909e+00 9.326173245406476e+00 9.400252235489519e+0011111
 9.477739731705316e+00 9.558674782079187e+00 9.643095784120977e+00 9.731040501238173e+00 9.822546078609115e+0011111
 9.917649058536774e+00 1.001638539530295e+01 1.011879046954133e+01 1.022489910214793e+01 1.033474556774689e+0111111
 1.044836360772794e+01 1.056578644287222e+01 1.068704678558236e+01 1.081217685173113e+01 1.094120837214354e+0111111
 1.107417260372661e+01 1.121110034025900e+01 1.135202192285419e+01 1.149696725010861e+01 1.164596578794716e+0111111
 1.179904657917674e+01 1.195623825275806e+01 1.211756903280744e+01 1.228306674733647e+01 1.245275883674055e+0111111
 1.262667236204465e+01 1.280483401291444e+01 1.298727011544212e+01 1.317400663971400e+01 1.336506920716769e+0111111
 1.356048309774633e+01 1.376027325685687e+01 1.396446430213847e+01 1.417308053004854e+01 1.438614592227148e+0111111
 1.460368415195683e+01 1.482571858979215e+01 1.505227230991628e+01 1.528336809567768e+01 1.551902844524400e+0111111
 1.575927557741032e+01 1.600413144395142e+01 1.625361772277942e+01 1.650775582452896e+01 1.676656690072403e+0111111
 1.703007184857124e+01 1.729829131563411e+01 1.757124570439508e+01 1.784895517670530e+01 1.813143965812811e+0111111
 1.841871884217809e+01 1.871081219445850e+01 8.710866763783393e+00 8.696674628707980e+00 8.683830587672894e+0011111
 8.672470648873913e+00 8.662711224501557e+00 8.654633017415144e+00 8.648309939094190e+00 8.643814178585499e+0011111
 8.641216124661455e+00 8.640584567419262e+00 8.641986751885419e+00 8.645488428427521e+00 8.651153901543825e+0011111
 8.659046076973464e+00 8.669226507103208e+00 8.681755434674974e+00 8.696691834813729e+00 8.714093455411868e+0011111
 8.734016855913953e+00 8.756517444552765e+00 8.781649514092276e+00 8.809466276134346e+00 8.840019894048192e+0011111
 8.873361514580838e+00 8.909541298206605e+00 8.948608448271871e+00 8.990611238990425e+00 9.035597042342138e+0011111
 9.083612353925572e+00 9.134702817814675e+00 9.188913250464328e+00 9.246287663710767e+00 9.306869286908341e+0011111
 9.370700588242954e+00 9.437823295260518e+00 9.508278414646288e+00 9.582106251289769e+00 9.659346453413793e+0011111
 9.740038013043490e+00 9.824219237487014e+00 9.911927803358459e+00 1.000320077243299e+01 1.009807460676507e+0111111
 1.019658518333065e+01 1.029876780820926e+01 1.040465723032172e+01 1.051428765473972e+01 1.062769275558139e+0111111
 1.074490568850811e+01 1.086595910283694e+01 1.099088515328187e+01 1.111971551133741e+01 1.125248137631806e+0111111
 1.138921348606480e+01 1.152994212733156e+01 1.167469714586255e+01 1.182350795617212e+01 1.197640355103727e+0111111
 1.213341251071279e+01 1.229456301188019e+01 1.245988283633787e+01 1.262939937944337e+01 1.280313965831574e+0111111
 1.298113031980574e+01 1.316339764824328e+01 1.334996757296862e+01 1.354086567565527e+01 1.373611719743169e+0111111
 1.393574704580875e+01 1.413977980141880e+01 1.434823972457389e+01 1.456115076164790e+01 1.477853655128938e+0111111
 1.500042043047025e+01 1.522682544037584e+01 1.545777433214112e+01 1.569328957243903e+01 1.593339334892434e+0111111
 1.617810757553901e+01 1.642745389768231e+01 1.668145369725082e+01 1.694012809755174e+01 1.720349796809455e+0111111
 1.747158392926264e+01 1.774440635687172e+01 1.802198538661529e+01 1.830434091840304e+01 1.859149262059420e+0111111
 1.888345993412891e+01 8.906925915398915e+00 8.892291135410829e+00 8.879009086169795e+00 8.867217776914661e+0011111
 8.857034971957830e+00 8.848541408392112e+00 8.841810757144428e+00 8.836914943306599e+00 8.833924210948739e+0011111
 8.832907184747693e+00 8.833930928985227e+00 8.837061098282653e+00 8.842361856595556e+00 8.849895900756401e+0011111
 8.859724590060923e+00 8.871907987736794e+00 8.886504901101537e+00 8.903572920382988e+00 8.923168456194279e+0011111
 8.945346775671489e+00 8.970162037294106e+00 8.997667324415662e+00 9.027914677539293e+00 9.060955125376086e+0011111
 9.096838714727525e+00 9.135614539234199e+00 9.177330767034464e+00 9.222034667376025e+00 9.269772636222983e+0011111
 9.320590220901700e+00 9.374532143824599e+00 9.431642325333236e+00 9.491963905698089e+00 9.555539266312181e+0011111
 9.622410050114084e+00 9.692617181273832e+00 9.766200884174591e+00 9.843200701720434e+00 9.923655513000142e+0011111
 1.000760355033475e+01 1.009508241573585e+01 1.018612909679961e+01 1.028077998206102e+01 1.037907087583144e+0111111
 1.048103701254083e+01 1.058671307060567e+01 1.069613318700840e+01 1.080933099996001e+01 1.092633961225143e+0111111
 1.104719160786194e+01 1.117191907848770e+01 1.130055363478594e+01 1.143312641728697e+01 1.156966810698427e+0111111
 1.171020893561419e+01 1.185477869563538e+01 1.200340674991848e+01 1.215612204115572e+01 1.231295310099948e+0111111
 1.247392805894030e+01 1.263907465093150e+01 1.280842022777056e+01 1.298199176324485e+01 1.315981586204912e+0111111
 1.334191876748373e+01 1.352832636893992e+01 1.371906420917965e+01 1.391415749141696e+01 1.411363108620748e+0111111
 1.431750953815190e+01 1.452581707242055e+01 1.473857760110384e+01 1.495581472939512e+01 1.517755176161104e+0111111
 1.540381170705470e+01 1.563461728572641e+01 1.586999093388771e+01 1.610995480948228e+01 1.635453079741925e+0111111
 1.660374051472241e+01 1.685760531555026e+01 1.711614629609013e+01 1.737938429933162e+01 1.764733991972073e+0111111
 1.792003350770144e+01 1.819748517414520e+01 1.847971479467370e+01 1.876674201387759e+01 1.905858624943337e+0111111
 9.104700108148108e+00 9.089637068625809e+00 9.075931148301082e+00 9.063722257514900e+00 9.053129443679474e+0011111
 9.044233459186934e+00 9.037107807586244e+00 9.031824254814353e+00 9.028452892391945e+00 9.027062197810437e+0011111
