 0950101   201     5   r   051313   051313   0                                 0
 9.104938509604215e+00 9.091409202072422e+00 9.079377712119676e+00 9.068953326724747e+00 9.060218342958340e+0011111
 9.053232043089373e+00 9.048051646538523e+00 9.044733017384518e+00 9.043330730647963e+00 9.043898188237010e+0011111
 9.046487654786437e+00 9.051150292611306e+00 9.057936195678923e+00 9.066894422537512e+00 9.078073028166953e+0011111
 9.091519094736885e+00 9.107278761272843e+00 9.125397252242530e+00 9.145918905082128e+00 9.168887196689925e+0011111
 9.194344768916544e+00 9.222333453086122e+00 9.252894293582724e+00 9.286067570537949e+00 9.321892821655631e+0011111
 9.360408863209475e+00 9.401653810248607e+00 9.445665096045254e+00 9.492479490817626e+00 9.542133119760415e+0011111
 9.594661480413118e+00 9.650099459396264e+00 9.708481348543124e+00 9.769840860454579e+00 9.834211143502177e+0011111
 9.901624796304084e+00 9.972113881697121e+00 1.004570994054601e+01 1.012244403950358e+01 1.020234673633970e+0111111
 1.028544808123489e+01 1.037177765298877e+01 1.046136457011833e+01 1.055423750162680e+01 1.065042467745202e+0111111
 1.074995389860519e+01 1.085285254700882e+01 1.095914759504430e+01 1.106886561481808e+01 1.118203278715555e+0111111
 1.129867491033241e+01 1.141881740855120e+01 1.154248534017263e+01 1.166970340570925e+01 1.180049595558948e+0111111
 1.193488699770065e+01 1.207290020471717e+01 1.221455892122231e+01 1.235988617062982e+01 1.250890466191266e+0111111
 1.266163679614475e+01 1.281810467286269e+01 1.297833009625304e+01 1.314233458117092e+01 1.331013935899597e+0111111
 1.348176538333087e+01 1.365723333554713e+01 1.383656363018407e+01 1.401977642020499e+01 1.420689160211565e+0111111
 1.439792882094918e+01 1.459290747512234e+01 1.479184672116606e+01 1.499476547833576e+01 1.520168243310412e+0111111
 1.541261604354035e+01 1.562758454357981e+01 1.584660594718699e+01 1.606969805241533e+01 1.629687844536696e+0111111
 1.652816450405582e+01 1.676357340217613e+01 1.700312211278089e+01 1.724682741187015e+01 1.749470588189578e+0111111
 1.774677391518116e+01 9.350484538076659e+00 9.332743077463251e+00 9.316140035033802e+00 9.300799836509055e+0011111
 9.286844628154114e+00 9.274392350151665e+00 9.263553998468819e+00 9.254412602273591e+00 9.247027327469542e+0011111
 9.241455129426424e+00 9.237751683595253e+00 9.235971430900578e+00 9.236167620990608e+00 9.238392356114744e+0011111
 9.242696726997817e+00 9.249130686280589e+00 9.257743105080696e+00 9.268581864632859e+00 9.281693885171999e+0011111
 9.297125154023695e+00 9.314920752864616e+00 9.335124884131886e+00 9.357780896574466e+00 9.382931309947452e+0011111
 9.410617838859928e+00 9.440881415790859e+00 9.473762213292504e+00 9.509299665403333e+00 9.547532488294792e+0011111
 9.588498700177158e+00 9.632235640490588e+00 9.678779988407573e+00 9.728167780673523e+00 9.780434428810869e+0011111
 9.835614735712692e+00 9.893742911650101e+00 9.954852589718133e+00 1.001897684074284e+01 1.008614818767223e+0111111
 1.015639861947251e+01 1.022975960455062e+01 1.030626210372213e+01 1.038593658274428e+01 1.046881302443166e+0111111
 1.055492094037195e+01 1.064428938225811e+01 1.073694695285309e+01 1.083292181660145e+01 1.093224170990277e+0111111
 1.103493395105983e+01 1.114102545001759e+01 1.125054274261176e+01 1.136351196811376e+01 1.147995886546623e+0111111
 1.159990880158686e+01 1.172338677947985e+01 1.185041744611975e+01 1.198102510011492e+01 1.211523369915805e+0111111
 1.225306686726935e+01 1.239454790183991e+01 1.253969978048102e+01 1.268854516768592e+01 1.284110642130968e+0111111
 1.299740559887331e+01 1.315746446369762e+01 1.332130449087207e+01 1.348894687306431e+01 1.366041252617532e+0111111
 1.383572209484465e+01 1.401489595781141e+01 1.419795423313469e+01 1.438491678327854e+01 1.457580322006529e+0111111
 1.477063290950200e+01 1.496942497648293e+01 1.517219830937323e+01 1.537897156447650e+01 1.558976317039024e+0111111
 1.580459133225280e+01 1.602347403588477e+01 1.624642905182831e+01 1.647347393928739e+01 1.670462604997220e+0111111
 1.693990253184988e+01 1.717932033280598e+01 1.742289620421645e+01 1.767064670443681e+01 1.792258820220692e+0111111
 9.549314865547395e+00 9.531157478399708e+00 9.514138006886839e+00 9.498382642987021e+00 9.484015339487566e+0011111
 9.471155807273318e+00 9.459916667969122e+00 9.450381639103380e+00 9.442609762229525e+00 9.436657844221520e+0011111
 9.432581418763514e+00 9.430434790472191e+00 9.430271077164939e+00 9.432142250307789e+00 9.436099173693641e+0011111
 9.442191640411739e+00 9.450468408175940e+00 9.460977233083479e+00 9.473764901876983e+00 9.488877308465993e+0011111
 9.506359467193676e+00 9.526255427287410e+00 9.548608392376114e+00 9.573460746079814e+00 9.600854074793730e+0011111
 9.630829189794273e+00 9.663426148662939e+00 9.698684276030422e+00 9.736642183648552e+00 9.777337789801276e+0011111
 9.820808338068829e+00 9.867090415461321e+00 9.916219969939808e+00 9.968232327343085e+00 1.002316220774000e+0111111
 1.008104374122633e+01 1.014191048318650e+01 1.020579542903907e+01 1.027273102848538e+01 1.034274919928015e+0111111
 1.041588134054256e+01 1.049215834562497e+01 1.057161061455730e+01 1.065426806608322e+01 1.074016014930406e+0111111
 1.082931585494616e+01 1.092176372626644e+01 1.101753186961000e+01 1.111664796463392e+01 1.121913927420969e+0111111
 1.132503265401731e+01 1.143435456184262e+01 1.154713106658921e+01 1.166338785701642e+01 1.178315025021291e+0111111
 1.190644319981680e+01 1.203329130399117e+01 1.216371881316415e+01 1.229774963754303e+01 1.243540735440948e+0111111
 1.257671521520500e+01 1.272169615241362e+01 1.287037279422079e+01 1.302276747805549e+01 1.317890221977768e+0111111
 1.333879874083757e+01 1.350247847572370e+01 1.366996257771041e+01 1.384127192445535e+01 1.401642712345112e+0111111
 1.419544851733628e+01 1.437835618906930e+01 1.456516996696996e+01 1.475590942963205e+01 1.495059391071169e+0111111
 1.514924250359413e+01 1.535187406594386e+01 1.555850722414069e+01 1.576916037760552e+01 1.598385170301925e+0111111
 1.620259915843789e+01 1.642542048730685e+01 1.665233322237765e+01 1.688335468953000e+01 1.711850201150131e+0111111
 1.735779211152810e+01 1.760124171689883e+01 1.784886736242498e+01 1.810068539382847e+01 9.749693502219783e+0011111
 9.731133296261799e+00 9.713710401386763e+00 9.697552744398116e+00 9.682786076069149e+00 9.669531936877540e+0011111
 9.657904480493809e+00 9.647988050459453e+00 9.639841535179997e+00 9.633521571957235e+00 9.629083537213194e+0011111
 9.626581588395354e+00 9.626068704467681e+00 9.627596724936232e+00 9.631216387391088e+00 9.636977363570001e+0011111
 9.644928293966444e+00 9.655116821017380e+00 9.667589620914121e+00 9.682392434085449e+00 9.699570094405313e+0011111
 9.719166557178713e+00 9.741224925961076e+00 9.765787478263860e+00 9.792895690376822e+00 9.822590320549116e+0011111
 9.854911350469340e+00 9.889897982068009e+00 9.927588711454190e+00 9.968021347575988e+00 1.001123303033345e+0111111
 1.005726024814612e+01 1.010613885498129e+01 1.015790408685103e+01 1.021259057778899e+01 1.027023237531864e+0111111
 1.033086295542663e+01 1.039451523705500e+01 1.046122159612661e+01 1.053101387911876e+01 1.060392341619990e+0111111
 1.067998103394371e+01 1.075921706763587e+01 1.084166137318752e+01 1.092734333866944e+01 1.101629189548081e+0111111
 1.110853552916618e+01 1.120410228989296e+01 1.130301980260274e+01 1.140531527684777e+01 1.151101551632482e+0111111
 1.162014692811763e+01 1.173273553165807e+01 1.184880696741767e+01 1.196838650533793e+01 1.209149905301054e+0111111
 1.221816916361556e+01 1.234842104362663e+01 1.248227856029250e+01 1.261976524890148e+01 1.276090431983798e+0111111
 1.290571866543774e+01 1.305423086664938e+01 1.320646319950865e+01 1.336243764143243e+01 1.352217587733844e+0111111
 1.368569930559677e+01 1.385302904381908e+01 1.402418593449122e+01 1.419919055045383e+01 1.437806320023719e+0111111
 1.456082393325410e+01 1.474749254485634e+01 1.493808858125862e+01 1.513263134433508e+01 1.533113990187069e+0111111
 1.553363309766079e+01 1.574012952876490e+01 1.595064756492671e+01 1.616520535395398e+01 1.638382082580010e+0111111
 1.660651169654692e+01 1.683329547229179e+01 1.706418945294171e+01 1.729921073591659e+01 1.753837621976575e+0111111
 1.778170260769735e+01 1.802920641102723e+01 1.828090395254533e+01 9.951504373930829e+00 9.932553421330066e+0011111
 9.914739219355283e+00 9.898191449901018e+00 9.883037572454588e+00 9.869400684117249e+00 9.857396474481767e+0011111
 9.847109910136256e+00 9.838599809670868e+00 9.831922719134125e+00 9.827133825893258e+00 9.824287114754551e+0011111
 9.823435405786544e+00 9.824630391067579e+00 9.827922670366419e+00 9.833361785685305e+00 9.840996254626017e+0011111
 9.850873602563611e+00 9.863040393629735e+00 9.877542260520755e+00 9.894423933155228e+00 9.913729266211554e+0011111
 9.935501265582422e+00 9.959782113783467e+00 9.986613194357533e+00 1.001603511531484e+01 1.004808773165033e+0111111
 1.008281016697849e+01 1.012024083432551e+01 1.016041745611701e+01 1.020337708339843e+01 1.024915614341294e+0111111
 1.029779045170548e+01 1.034931514693809e+01 1.040376476913903e+01 1.046117327647455e+01 1.052157405979798e+0111111
 1.058499995676779e+01 1.065148326554282e+01 1.072105575806375e+01 1.079374869293100e+01 1.086959282788902e+0111111
 1.094861843192871e+01 1.103085529701873e+01 1.111633274947704e+01 1.120507966099410e+01 1.129712445931925e+0111111
 1.139249513862090e+01 1.149121926953204e+01 1.159332400889117e+01 1.169883610918979e+01 1.180778192773616e+0111111
 1.192018743554515e+01 1.203607822596446e+01 1.215547952304530e+01 1.227841618966786e+01 1.240491273542915e+0111111
 1.253499332430173e+01 1.266868178207228e+01 1.280600160356619e+01 1.294697595966705e+01 1.309162770413734e+0111111
 1.323997938024764e+01 1.339205322722063e+01 1.354787118649661e+01 1.370745490782652e+01 1.387082575519803e+0111111
 1.403800481260098e+01 1.420901288963719e+01 1.438387052697962e+01 1.456259800168664e+01 1.474521533237541e+0111111
 1.493174228425963e+01 1.512219837405566e+01 1.531660287476185e+01 1.551497482031426e+01 1.571733301012387e+0111111
 1.592369601349826e+01 1.613408217395159e+01 1.634850961340677e+01 1.656699623629276e+01 1.678955973354046e+0111111
 1.701621758648036e+01 1.724698707064502e+01 1.748188525947878e+01 1.772092902795897e+01 1.796413505612853e+0111111
 1.821151983254663e+01 1.846309965765572e+01 1.015464401781620e+01 1.013531404188081e+01 1.011712009079172e+0111111
 1.010019352824638e+01 1.008466352707027e+01 1.007065485810704e+01 1.005828474417791e+01 1.004763882073159e+0111111
 1.003877572574122e+01 1.003175177496120e+01 1.002662201754213e+01 1.002344028197457e+01 1.002225930378027e+0111111
 1.002313070047508e+01 1.002610491070507e+01 1.003123132775133e+01 1.003855833113275e+01 1.004813331720263e+0111111
 1.006000272882260e+01 1.007421208408301e+01 1.009080600405642e+01 1.010982823958362e+01 1.013132169710281e+0111111
 1.015532846353782e+01 1.018188983026896e+01 1.021104631621194e+01 1.024283769003388e+01 1.027730299153651e+0111111
 1.031448055223786e+01 1.035440801518370e+01 1.039712235401996e+01 1.044265989135672e+01 1.049105631645435e+0111111
 1.054234670226034e+01 1.059656552182564e+01 1.065374666412714e+01 1.071392344932296e+01 1.077712864346762e+0111111
 1.084339450924471e+01 1.091275277626722e+01 1.098523462555569e+01 1.106087074082561e+01 1.113969132029901e+0111111
 1.122172608817631e+01 1.130700430577605e+01 1.139555478235046e+01 1.148740588558586e+01 1.158258555179563e+0111111
 1.168112129581537e+01 1.178304022060827e+01 1.188836902659010e+01 1.199713402068231e+01 1.210936112510133e+0111111
 1.222507588589364e+01 1.234430348122340e+01 1.246706872942215e+01 1.259339609680740e+01 1.272330970527806e+0111111
 1.285683333969469e+01 1.299399045505060e+01 1.313480418344201e+01 1.327929734084309e+01 1.342749243369296e+0111111
 1.357941166530056e+01 1.373507694207368e+01 1.389450987957806e+01 1.405773180843178e+01 1.422476378004100e+0111111
 1.439562657218200e+01 1.457034069443414e+01 1.474892639346955e+01 1.493140365820330e+01 1.511779222480921e+0111111
 1.530811158160515e+01 1.550238097381277e+01 1.570061940819442e+01 1.590284565757263e+01 1.610907826523476e+0111111
 1.631933554922685e+01 1.653363560654031e+01 1.675199631719440e+01 1.697443534821797e+01 1.720097015753343e+0111111
 1.743161799774630e+01 1.766639591984224e+01 1.790532077679624e+01 1.814840922709357e+01 1.839567773816918e+0111111
 1.864714258976395e+01 1.035901869089635e+01 1.033932096972389e+01 1.032075849748998e+01 1.030346423840223e+0111111
 1.028756900278084e+01 1.027319916744914e+01 1.026047343176194e+01 1.024947807385866e+01 1.024027164928743e+0111111
 1.023291036596643e+01 1.022744916775569e+01 1.022394177975847e+01 1.022244075149116e+01 1.022299749800353e+0111111
 1.022566233903978e+01 1.023048453633452e+01 1.023751236922342e+01 1.024679319801159e+01 1.025837333257303e+0111111
 1.027229816163610e+01 1.028861218540948e+01 1.030735904123417e+01 1.032858152845708e+01 1.035232163251338e+0111111
 1.037862054821694e+01 1.040751870226427e+01 1.043905577496413e+01 1.047327072120867e+01 1.051020179070573e+0111111
 1.054988654749353e+01 1.059236188876058e+01 1.063766406299457e+01 1.068582868748474e+01 1.073689076520138e+0111111
 1.079088470107721e+01 1.084784431771352e+01 1.090780287053503e+01 1.097079306241536e+01 1.103684705779508e+0111111
 1.110599649631334e+01 1.117827250597352e+01 1.125370571586168e+01 1.133232626843731e+01 1.141416383141344e+0111111
 1.149924760924348e+01 1.158760636414670e+01 1.167926844791942e+01 1.177426174025019e+01 1.187261369651713e+0111111
 1.197435136261864e+01 1.207950138412942e+01 1.218809001520085e+01 1.230014312721203e+01 1.241568621717937e+0111111
 1.253474441593030e+01 1.265734249604930e+01 1.278350487960200e+01 1.291325564564427e+01 1.304661853752367e+0111111
 1.318361696997829e+01 1.332427403604050e+01 1.346861251375116e+01 1.361665487269044e+01 1.376842328033090e+0111111
 1.392393960821873e+01 1.408322543798852e+01 1.424630206721662e+01 1.441319051511866e+01 1.458391152809617e+0111111
 1.475848558513635e+01 1.493693290307089e+01 1.511927344169722e+01 1.530552690876716e+01 1.549571276484684e+0111111
 1.568985022805248e+01 1.588795827866473e+01 1.609005566362696e+01 1.629616090092982e+01 1.650629228388603e+0111111
 1.672046788529911e+01 1.693870556152879e+01 1.716102295645647e+01 1.738743750535375e+01 1.761796643865727e+0111111
 1.785262678565168e+01 1.809143537806545e+01 1.833440885357893e+01 1.858156365925156e+01 1.883291605486624e+0111111
 1.056454433837856e+01 1.054448934703612e+01 1.052556890936463e+01 1.050791750138146e+01 1.049166748646880e+0111111
 1.047694677014628e+01 1.046387546145213e+01 1.045254044442813e+01 1.044300018093974e+01 1.043531076445851e+0111111
 1.042952703007658e+01 1.042570259858578e+01 1.042388991870591e+01 1.042414030748554e+01 1.042650398891892e+0111111
 1.043103013083599e+01 1.043776688013054e+01 1.044676139639780e+01 1.045805988405426e+01 1.047170762301370e+0111111
 1.048774900100535e+01 1.050622762344326e+01 1.052718621025845e+01 1.055066663351255e+01 1.057670998160075e+0111111
 1.060535658091368e+01 1.063664601684785e+01 1.067061715416206e+01 1.070730815668336e+01 1.074675650637048e+0111111
 1.078899902174653e+01 1.083407187571480e+01 1.088201061277444e+01 1.093285016565260e+01 1.098662487137197e+0111111
 1.104336848677183e+01 1.110311420350212e+01 1.116589466250908e+01 1.123174196803122e+01 1.130068770112413e+0111111
 1.137276293273233e+01 1.144799823632512e+01 1.152642370011413e+01 1.160806893886860e+01 1.169296310534423e+0111111
 1.178113490134092e+01 1.187261258840437e+01 1.196742399818500e+01 1.206559654246839e+01 1.216715722288941e+0111111
 1.227213264034309e+01 1.238054900410376e+01 1.249243214066348e+01 1.260780750653303e+01 1.272670022139368e+0111111
 1.284913501746775e+01 1.297513627014084e+01 1.310472801348902e+01 1.323793394747480e+01 1.337477744494934e+0111111
 1.351528155846797e+01 1.365946902692324e+01 1.380736228200138e+01 1.395898345446697e+01 1.411435438028111e+0111111
 1.427349660655807e+01 1.443643139736499e+01 1.460317973936973e+01 1.477376234734145e+01 1.494819966950775e+0111111
 1.512651189277379e+01 1.530871894780663e+01 1.549484051398952e+01 1.568489602424974e+01 1.587890466976431e+0111111
 1.607688540454634e+01 1.627885694991696e+01 1.648483779886516e+01 1.669484622029942e+01 1.690890026319453e+0111111
 1.712701776063643e+01 1.734921633376819e+01 1.757551339564024e+01 1.780592615496773e+01 1.804047161979710e+0111111
 1.827916660108619e+01 1.852202771619752e+01 1.876907139231135e+01 1.902031386975661e+01 1.077114620508966e+0111111
 1.075074362219791e+01 1.073147478445091e+01 1.071347590024185e+01 1.069688081757464e+01 1.068181888407615e+0111111
 1.066841154143915e+01 1.065674623147612e+01 1.064688129984748e+01 1.063887270895284e+01 1.063277517275920e+0111111
 1.062864219893920e+01 1.062652612955405e+01 1.062647818022731e+01 1.062854847779079e+01 1.063278609640910e+0111111
 1.063923909220756e+01 1.064795453644168e+01 1.065897854725457e+01 1.067235632007494e+01 1.068813215671113e+0111111
 1.070634949319837e+01 1.072705092645737e+01 1.075027823982026e+01 1.077607242748052e+01 1.080447372759324e+0111111
 1.083552170798233e+01 1.086925515286929e+01 1.090571213188722e+01 1.094493003795802e+01 1.098694560516975e+0111111
 1.103179492611207e+01 1.107951346867534e+01 1.113013609232139e+01 1.118369706383686e+01 1.124023007258061e+0111111
 1.129976824523922e+01 1.136234416010408e+01 1.142798986088475e+01 1.149673687007364e+01 1.156861620187697e+0111111
 1.164365837472642e+01 1.172189342338701e+01 1.180335091067514e+01 1.188805993880103e+01 1.197604916034952e+0111111
 1.206734678891274e+01 1.216198060938734e+01 1.225997798794920e+01 1.236136588171740e+01 1.246617084811947e+0111111
 1.257441905396901e+01 1.268613628426613e+01 1.280134795073207e+01 1.292007910008651e+01 1.304235442207863e+0111111
 1.316819825727993e+01 1.329763460464791e+01 1.343068712886969e+01 1.356737916749232e+01 1.370773373784869e+0111111
 1.385177354378570e+01 1.399952098544333e+01 1.415099818543697e+01 1.430622694890439e+01 1.446522878689153e+0111111
 1.462802492858313e+01 1.479463632688618e+01 1.496508366387081e+01 1.513938735607239e+01 1.531756755965952e+0111111
 1.549964417547103e+01 1.568563685392630e+01 1.587556499981211e+01 1.606944777695033e+01 1.626730411274876e+0111111
 1.646915270263987e+01 1.667501201440975e+01 1.688490029242065e+01 1.709883556173076e+01 1.731683563211349e+0111111
 1.753891810197960e+01 1.776510036220490e+01 1.799539959986645e+01 1.822983280188917e+01 1.846841675860716e+0111111
 1.871116806723915e+01 1.895810313528473e+01 1.920923818383941e+01 1.097875577579208e+01 1.095801501064079e+0111111
 1.093840738104504e+01 1.092007032256443e+01 1.090313916896501e+01 1.088774478699146e+01 1.087401016388603e+0111111
 1.086202325816418e+01 1.085184226428871e+01 1.084352298583265e+01 1.083711999338788e+01 1.083268666389444e+0111111
 1.083027521904470e+01 1.082993676260970e+01 1.083172131658871e+01 1.083567785612323e+01 1.084185434314709e+0111111
 1.085029775876754e+01 1.086105413438843e+01 1.087416858159919e+01 1.088968532086174e+01 1.090764770903307e+0111111
 1.092809826576607e+01 1.095107869883170e+01 1.097662992840861e+01 1.100479211038490e+01 1.103560465871708e+0111111
 1.106910626688996e+01 1.110533492852019e+01 1.114432795714450e+01 1.118612200928795e+01 1.123075316089822e+0111111
 1.127825682015459e+01 1.132866776714012e+01 1.138202019323150e+01 1.143834771596329e+01 1.149768339344775e+0111111
 1.156005973835740e+01 1.162550873147962e+01 1.169406183485350e+01 1.176575000449994e+01 1.184060370275595e+0111111
 1.191865291022545e+01 1.199992713735811e+01 1.208445543566807e+01 1.217226640860454e+01 1.226338822208617e+0111111
 1.235784861471023e+01 1.245567490764849e+01 1.255689401424015e+01 1.266153244929310e+01 1.276961633810368e+0111111
 1.288117142520468e+01 1.299622308285217e+01 1.311479631925928e+01 1.323691578658741e+01 1.336260578870247e+0111111
 1.349189028870484e+01 1.362479291624189e+01 1.376133697460939e+01 1.390154544765061e+01 1.404544100645952e+0111111
 1.419304601589530e+01 1.434438254091450e+01 1.449947235272749e+01 1.465833693478517e+01 1.482099748860154e+0111111
 1.498747493941828e+01 1.515778994171638e+01 1.533196288457975e+01 1.551001389691641e+01 1.569196285254151e+0111111
 1.587782937762145e+01 1.606763287106146e+01 1.626139247333131e+01 1.645912708426979e+01 1.666085537256012e+0111111
 1.686659578001978e+01 1.707636652578667e+01 1.729018561040482e+01 1.750807081981185e+01 1.773003972923138e+0111111
 1.795610970697275e+01 1.818629791814106e+01 1.842062132825924e+01 1.865909670680620e+01 1.890174063067058e+0111111
 1.914856948752651e+01 1.939959947912932e+01 1.118731212057164e+01 1.116624169344344e+01 1.114630370362412e+0111111
 1.112763707580677e+01 1.111037865775754e+01 1.109466069941424e+01 1.108060725986856e+01 1.106830684892659e+0111111
 1.105781761167022e+01 1.104919542934903e+01 1.104249471887691e+01 1.103776869912026e+01 1.103506944900347e+0111111
 1.103444794224616e+01 1.103595408138534e+01 1.103963673094135e+01 1.104554374963176e+01 1.105372202157281e+0111111
 1.106421748643409e+01 1.107707516853285e+01 1.109233920486938e+01 1.111005287211577e+01 1.113025861257996e+0111111
 1.115299805917089e+01 1.117831205939652e+01 1.120624069842800e+01 1.123682332126510e+01 1.127009855403877e+0111111
 1.130610432448699e+01 1.134487788163930e+01 1.138645581474495e+01 1.143087407147857e+01 1.147816797545644e+0111111
 1.152837224309449e+01 1.158152099983879e+01 1.163764779579702e+01 1.169678564651557e+01 1.175896704722541e+0111111
 1.182422391258100e+01 1.189258764013993e+01 1.196408912430937e+01 1.203875876843702e+01 1.211662649654602e+0111111
 1.219772176472200e+01 1.228207357216118e+01 1.236971047188880e+01 1.246066058115769e+01 1.255495159153591e+0111111
 1.265261077869367e+01 1.275366501189848e+01 1.285814076322836e+01 1.296606411651226e+01 1.307746077600621e+0111111
 1.319235607481523e+01 1.331077498306816e+01 1.343274211585508e+01 1.355828174093465e+01 1.368741778621924e+0111111
 1.382017384704643e+01 1.395657319324265e+01 1.409663877598759e+01 1.424039323448516e+01 1.438785890244837e+0111111
 1.453905781440380e+01 1.469401171182237e+01 1.485274204908203e+01 1.501526999926793e+01 1.518161645981584e+0111111
 1.535180205800412e+01 1.552584715629853e+01 1.570377185755594e+01 1.588559601009055e+01 1.607133921260780e+0111111
 1.626102081900984e+01 1.645465994307735e+01 1.665227546303063e+01 1.685388602597514e+01 1.705951005223414e+0111111
 1.726916573957243e+01 1.748287106731474e+01 1.770064380036180e+01 1.792250149310737e+01 1.814846149325924e+0111111
 1.837854094617817e+01 1.861275681195933e+01 1.885112584529024e+01 1.909366460213551e+01 1.934038944981009e+0111111
 1.959131657025132e+01 1.139675908205387e+01 1.137536745307095e+01 1.135510743886480e+01 1.133611940163799e+0111111
 1.131854165610548e+01 1.130250788778176e+01 1.128814347367434e+01 1.127553750759011e+01 1.126474800844903e+0111111
 1.125583052601901e+01 1.124883935883577e+01 1.124382763287847e+01 1.124084750807249e+01 1.123994984798276e+0111111
 1.124118441339266e+01 1.124459993972001e+01 1.125024416724981e+01 1.125816387068853e+01 1.126840488794925e+0111111
 1.128101214810660e+01 1.129602969848417e+01 1.131350073085442e+01 1.133346760674621e+01 1.135597188186349e+0111111
 1.138105432962866e+01 1.140875496386811e+01 1.143911306066274e+01 1.147216717938827e+01 1.150795518297279e+0111111
 1.154651425739963e+01 1.158788093048411e+01 1.163209108995297e+01 1.167918000085541e+01 1.172918232233305e+0111111
 1.178213212377679e+01 1.183806290039635e+01 1.189700758822878e+01 1.195899857860988e+01 1.202406773213234e+0111111
 1.209224639211309e+01 1.216356539759169e+01 1.223805509587956e+01 1.231574538221237e+01 1.239666569385072e+0111111
 1.248084497465784e+01 1.256831172442005e+01 1.265909400930964e+01 1.275321947180960e+01 1.285071534035429e+0111111
 1.295160843869332e+01 1.305592519498657e+01 1.316369165063811e+01 1.327493346887621e+01 1.338967594308830e+0111111
 1.350794400491693e+01 1.362976223212573e+01 1.375515485624168e+01 1.388414576998097e+01 1.401675853446634e+0111111
 1.415301638624126e+01 1.429294224408889e+01 1.443655871566143e+01 1.458388810392653e+01 1.473495241343641e+0111111
 1.488977335642589e+01 1.504837235874476e+01 1.521077056562978e+01 1.537698884732194e+01 1.554704780453400e+0111111
 1.572096777377248e+01 1.589876883252004e+01 1.608047080428164e+01 1.626609326349962e+01 1.645565554034144e+0111111
 1.664917672536478e+01 1.684667567406274e+01 1.704817101129445e+01 1.725368113560348e+01 1.746322422342803e+0111111
 1.767681823320648e+01 1.789448090938117e+01 1.811622978630374e+01 1.834208219204492e+01 1.857205525211209e+0111111
 1.880616589307649e+01 1.904443084611453e+01 1.928686665046282e+01 1.953348965679366e+01 1.978431603050908e+0111111
 1.160704469230145e+01 1.158534010669449e+01 1.156476625073485e+01 1.154546486809136e+01 1.152757568842339e+0111111
 1.151123378667743e+01 1.149656581956675e+01 1.148366144855264e+01 1.147257863939580e+01 1.146337286493866e+0111111
 1.145609834714850e+01 1.145080810318309e+01 1.144755398913026e+01 1.144638674153435e+01 1.144735601896198e+0111111
 1.145051059920938e+01 1.145589819049504e+01 1.146356543957932e+01 1.147355806707103e+01 1.148592089383538e+0111111
 1.150069786678135e+01 1.151793208396838e+01 1.153766581899407e+01 1.155994054463847e+01 1.158479695575492e+0111111
 1.161227499140582e+01 1.164241385624922e+01 1.167525204118782e+01 1.171082734329605e+01 1.174917688504358e+0111111
 1.179033713283596e+01 1.183434391489416e+01 1.188123243849611e+01 1.193103730660300e+01 1.198379253389401e+0111111
 1.203953156223184e+01 1.209828727558249e+01 1.216009201441084e+01 1.222497758957362e+01 1.229297529573071e+0111111
 1.236411592429497e+01 1.243842977593933e+01 1.251594667268046e+01 1.259669596955624e+01 1.268070656591405e+0111111
 1.276800691632621e+01 1.285862504114826e+01 1.295258853673437e+01 1.304992459404214e+01 1.315066003118576e+0111111
 1.325482123532591e+01 1.336243420336347e+01 1.347352455569868e+01 1.358811754445196e+01 1.370623806145666e+0111111
 1.382791064603126e+01 1.395315949253657e+01 1.408200845772410e+01 1.421448106788284e+01 1.435060052578896e+0111111
 1.449038971746593e+01 1.463387121875984e+01 1.478106730173633e+01 1.493199994090421e+01 1.508669081927161e+0111111
 1.524516133423970e+01 1.540743260333902e+01 1.557352546981373e+01 1.574346050805844e+01 1.591725802891186e+0111111
 1.609493808481263e+01 1.627652047482085e+01 1.646202474951007e+01 1.665147021573354e+01 1.684487594126902e+0111111
 1.704226075934510e+01 1.724364327305394e+01 1.744904185965286e+01 1.765847467475873e+01 1.787195965643851e+0111111
 1.808951452919885e+01 1.831115680787801e+01 1.853690380144289e+01 1.876677261669447e+01 1.900078016188343e+0111111
 1.923894315024049e+01 1.948127810342097e+01 1.972780135487012e+01 1.997852905310767e+01 1.181812117281434e+0111111
 1.179611150619133e+01 1.177523168991150e+01 1.175562478890548e+01 1.173743189100060e+01 1.172078940918900e+0111111
 1.170582523613743e+01 1.169262957895505e+01 1.168126034634292e+01 1.167177293313457e+01 1.166422148543405e+0111111
 1.165865894600650e+01 1.165513709752979e+01 1.165370660377789e+01 1.165441704881972e+01 1.165731697432363e+0111111
 1.166245391506101e+01 1.166987443270357e+01 1.167962419551597e+01 1.169174808551841e+01 1.170628995016123e+0111111
 1.172329278048833e+01 1.174279875093494e+01 1.176484924192809e+01 1.178948486189073e+01 1.181674546862341e+0111111
 1.184667019004917e+01 1.187929744431594e+01 1.191466495925756e+01 1.195280979121970e+01 1.199376834326083e+0111111
 1.203757638274129e+01 1.208426905831636e+01 1.213388091634946e+01 1.218644591676409e+01 1.224199744835226e+0111111
 1.230056834355908e+01 1.236219089276162e+01 1.242689685806119e+01 1.249471748660725e+01 1.256568352347142e+0111111
 1.263982522408853e+01 1.271717236628247e+01 1.279775426189303e+01 1.288159976801952e+01 1.296873729789670e+0111111
 1.305919483141790e+01 1.315299992531899e+01 1.325017972303730e+01 1.335076096425788e+01 1.345476999415995e+0111111
 1.356223277237528e+01 1.367317488166939e+01 1.378762153635733e+01 1.390559759046314e+01 1.402712755659145e+0111111
 1.415223562338012e+01 1.428094561212689e+01 1.441328101287526e+01 1.454926499340412e+01 1.468892040591227e+0111111
 1.483226979352462e+01 1.497933539662584e+01 1.513013915902584e+01 1.528470273396262e+01 1.544304748994687e+0111111
 1.560519451645309e+01 1.577116462946212e+01 1.594097837685943e+01 1.611465604369303e+01 1.629221765729627e+0111111
 1.647368299227863e+01 1.665907157538922e+01 1.684840269025634e+01 1.704169538200762e+01 1.723896846177311e+0111111
 1.744024051107635e+01 1.764552988611575e+01 1.785485472193981e+01 1.806823293651990e+01 1.828568223472297e+0111111
 1.850722011218757e+01 1.873286385910598e+01 1.896263056391543e+01 1.919653711690042e+01 1.943460021371030e+0111111
 1.967683635879179e+01 1.992326186874294e+01 2.017389287558673e+01 1.202994493452965e+01 1.200763753814487e+0111111
 1.198645919378140e+01 1.196655422352431e+01 1.194806501200116e+01 1.193112925371479e+01 1.191587602798073e+0111111
 1.190239605957603e+01 1.189074719045845e+01 1.188098473124085e+01 1.187316274832948e+01 1.186733410821155e+0111111
 1.186355051986102e+01 1.186186257527997e+01 1.186231978821614e+01 1.186497063111273e+01 1.186986257035637e+0111111
 1.187704209989622e+01 1.188655477330926e+01 1.189844523438897e+01 1.191275724633292e+01 1.192953371960376e+0111111
 1.194881683506232e+01 1.197064798486792e+01 1.199506767961698e+01 1.202211568598485e+01 1.205183104677271e+0111111
 1.208425210028027e+01 1.211941649914046e+01 1.215736122860709e+01 1.219812262429265e+01 1.224173638935864e+0111111
 1.228823761116467e+01 1.233766077738493e+01 1.239003979160347e+01 1.244540798840068e+01 1.250379814794545e+0111111
 1.256524251010702e+01 1.262977278810201e+01 1.269742018169199e+01 1.276821538994706e+01 1.284218862359044e+0111111
 1.291936961693974e+01 1.299978763945947e+01 1.308347150693922e+01 1.317044959231167e+01 1.326074983612441e+0111111
 1.335439975667832e+01 1.345142645984562e+01 1.355185664857964e+01 1.365571663212834e+01 1.376303233496294e+0111111
 1.387382930543205e+01 1.398813272415281e+01 1.410596741214766e+01 1.422735783873773e+01 1.435232812920103e+0111111
 1.448090207220443e+01 1.461310312701854e+01 1.474895443052240e+01 1.488847880400662e+01 1.503169875978187e+0111111
 1.517863650868461e+01 1.532931398934669e+01 1.548375283497155e+01 1.564197438415994e+01 1.580399969743488e+0111111
 1.596984956273180e+01 1.613954450074850e+01 1.631310477015840e+01 1.649055037269208e+01 1.667190105808978e+0111111
 1.685717632892948e+01 1.704639544533357e+01 1.723957742955836e+01 1.743674107046864e+01 1.763790492790232e+0111111
 1.784308733692690e+01 1.805230641199165e+01 1.826558005097862e+01 1.848292593915507e+01 1.870436155303048e+0111111
 1.892990416412070e+01 1.915957084262244e+01 1.939337846099960e+01 1.963134369748600e+01 1.987348303950371e+0111111
 2.011981278700373e+01 2.037034905572687e+01 1.224247657782173e+01 1.221987812384458e+01 1.219840808644067e+0111111
 1.217821197709716e+01 1.215943341146389e+01 1.214221130396375e+01 1.212667586569381e+01 1.211291830483212e+0111111
 1.210099638060506e+01 1.209096530758262e+01 1.208287906366109e+01 1.207679043274234e+01 1.207275104586918e+0111111
 1.207081142076753e+01 1.207102099978218e+01 1.207342818621883e+01 1.207808037912356e+01 1.208502400654410e+0111111
 1.209430455732584e+01 1.210596661150067e+01 1.212005386933009e+01 1.213660917906469e+01 1.215567456348298e+0111111
 1.217729124526994e+01 1.220149967129585e+01 1.222833953683583e+01 1.225784991381540e+01 1.229006912721757e+0111111
 1.232503474571022e+01 1.236278367591533e+01 1.240335217953903e+01 1.244677589003561e+01 1.249308982880023e+0111111
 1.254232842088928e+01 1.259452551027140e+01 1.264971437461442e+01 1.270792773961649e+01 1.276919779289027e+0111111
 1.283355619741107e+01 1.290103410454023e+01 1.297166216663632e+01 1.304547054926570e+01 1.312248894302619e+0111111
 1.320274657499573e+01 1.328627221981898e+01 1.337309421044437e+01 1.346324044852405e+01 1.355673841448830e+0111111
 1.365361517730677e+01 1.375389740394723e+01 1.385761136854356e+01 1.396478296128328e+01 1.407543769702468e+0111111
 1.418960072365444e+01 1.430729683019393e+01 1.442855045466486e+01 1.455338569172202e+01 1.468182630006192e+0111111
 1.481389570961615e+01 1.494961702853606e+01 1.508901304997745e+01 1.523210625869167e+01 1.537891883743062e+0111111
 1.552947267317173e+01 1.568378936316969e+01 1.584189022084092e+01 1.600379628148636e+01 1.616952830785853e+0111111
 1.633910679557834e+01 1.651255197840585e+01 1.668988383357978e+01 1.687112210455343e+01 1.705628628096569e+0111111
 1.724539559874250e+01 1.743846905665917e+01 1.763552542078001e+01 1.783658322879027e+01 1.804166079422238e+0111111
 1.825077621057975e+01 1.846394735536149e+01 1.868119189399011e+01 1.890252728364547e+01 1.912797077700736e+0111111
 1.935753942590969e+01 1.959125008490786e+01 1.982911941476360e+01 2.007116388584650e+01 2.031739978145884e+0111111
 2.056784320108157e+01 1.245568002732183e+01 1.243279706181627e+01 1.241104157869487e+01 1.239056060047870e+0111111
 1.237149906130236e+01 1.235399702895543e+01 1.233818578587654e+01 1.232415698277766e+01 1.231196827333993e+0111111
 1.230167475817600e+01 1.229333031244441e+01 1.228698762633353e+01 1.228269824443091e+01 1.228051260384736e+0111111
 1.228048007101662e+01 1.228264897712965e+01 1.228706665219140e+01 1.229377945770914e+01 1.230283281803624e+0111111
 1.231427125040666e+01 1.232813839370215e+01 1.234447703599897e+01 1.236332914094456e+01 1.238473587301427e+0111111
 1.240873762170024e+01 1.243537402468280e+01 1.246468399003390e+01 1.249670571750067e+01 1.253147671891546e+0111111
 1.256903383788449e+01 1.260941335368119e+01 1.265265089948673e+01 1.269878142389289e+01 1.274783928340976e+0111111
 1.279985825726995e+01 1.285487156182504e+01 1.291291186453502e+01 1.297401129755314e+01 1.303820147091140e+0111111
 1.310551348531329e+01 1.317597794454200e+01 1.324962496749233e+01 1.332648419983652e+01 1.340658482533372e+0111111
 1.348995557679318e+01 1.357662474670200e+01 1.366662019752797e+01 1.375996937170758e+01 1.385669930133021e+0111111
 1.395683661752806e+01 1.406040755958245e+01 1.416743798375608e+01 1.427795337186033e+01 1.439197883956797e+0111111
 1.450953914447889e+01 1.463065869394884e+01 1.475536155268873e+01 1.488367145014263e+01 1.501561178765328e+0111111
 1.515120564542098e+01 1.529047578926475e+01 1.543344467719158e+01 1.558013446578121e+01 1.573056701639229e+0111111
 1.588476390119670e+01 1.604274640904757e+01 1.620453555118670e+01 1.637015206679727e+01 1.653961642840686e+0111111
 1.671294884714551e+01 1.689016927786444e+01 1.707129742411939e+01 1.725635274302350e+01 1.744535444997377e+0111111
 1.763832152325580e+01 1.783527270852959e+01 1.803622652320179e+01 1.824120126068688e+01 1.845021499456116e+0111111
 1.866328558323423e+01 1.888043068901645e+01 1.910166775671193e+01 1.932701401971993e+01 1.955648651111806e+0111111
 1.979010206720687e+01 2.002787733097313e+01 2.026982875547129e+01 2.051597260712938e+01 2.076632496897722e+0111111
 1.266952095112853e+01 1.264635987360606e+01 1.262432557931786e+01 1.260356609534469e+01 1.258422754198621e+0111111
 1.256645138302000e+01 1.255037019113159e+01 1.253607601510485e+01 1.252362637291480e+01 1.251307622672812e+0111111
 1.250447932888421e+01 1.249788825951032e+01 1.249335446355424e+01 1.249092828700612e+01 1.249065901215055e+0111111
 1.249259489174351e+01 1.249678318204866e+01 1.250327017469900e+01 1.251210122737248e+01 1.252332079328758e+0111111
 1.253697244953739e+01 1.255309892428924e+01 1.257174212288467e+01 1.259294315287636e+01 1.261674234804375e+0111111
 1.264317929142858e+01 1.267229283743283e+01 1.270412113302109e+01 1.273870163806894e+01 1.277607114489737e+0111111
 1.281626579703225e+01 1.285932110722615e+01 1.290527197477869e+01 1.295415270218911e+01 1.300599704974401e+0111111
 1.306083826745839e+01 1.311870896375186e+01 1.317964121053584e+01 1.324366656073408e+01 1.331081606077849e+0111111
 1.338112026275536e+01 1.345460923620567e+01 1.353131257958615e+01 1.361125943139713e+01 1.369447848098478e+0111111
 1.378099797902568e+01 1.387084574770230e+01 1.396404919057755e+01 1.406063530217761e+01 1.416063067729121e+0111111
 1.426406151999480e+01 1.437095365241188e+01 1.448133252321483e+01 1.459522321587857e+01 1.471265045669300e+0111111
 1.483363862254353e+01 1.495821174846662e+01 1.508639353498811e+01 1.521820735525244e+01 1.535367626194857e+0111111
 1.549282299404083e+01 1.563566998331040e+01 1.578223936071456e+01 1.593255296256932e+01 1.608663233656181e+0111111
 1.624449874759824e+01 1.640617318349242e+01 1.657167636050101e+01 1.674102872871016e+01 1.691425047727817e+0111111
 1.709136153953990e+01 1.727238159797646e+01 1.745733008905533e+01 1.764622620794470e+01 1.783908891310666e+0111111
 1.803593693077217e+01 1.823678875930290e+01 1.844166267344240e+01 1.865057672846077e+01 1.886354876419604e+0111111
 1.908059640899543e+01 1.930173708355961e+01 1.952698800469295e+01 1.975636618896301e+01 1.998988845627108e+0111111
 2.022757143333826e+01 2.046943155710672e+01 2.071548507806266e+01 2.096574806347929e+01 1.288396824195555e+0111111
 1.286053502515607e+01 1.283822780861836e+01 1.281719584364288e+01 1.279758650063468e+01 1.277954232054112e+0111111
 1.276319680521723e+01 1.274864257714372e+01 1.273593733127597e+01 1.272513590463715e+01 1.271629190037450e+0111111
 1.270945776658843e+01 1.270468483037862e+01 1.270202333161028e+01 1.270152245614735e+01 1.270323036836944e+0111111
 1.270719424284396e+01 1.271346029506708e+01 1.272207381121932e+01 1.273307917690664e+01 1.274651990487635e+0111111
 1.276243866171107e+01 1.278087729351572e+01 1.280187685061775e+01 1.282547761130900e+01 1.285171910465906e+0111111
 1.288064013243354e+01 1.291227879015164e+01 1.294667248731810e+01 1.298385796686462e+01 1.302387132383519e+0111111
 1.306674802334919e+01 1.311252291787548e+01 1.316123026384871e+01 1.321290373765889e+01 1.326757645104293e+0111111
 1.332528096590665e+01 1.338604930860344e+01 1.344991298621822e+01 1.351690307430919e+01 1.358705010845602e+0111111
 1.366038410489845e+01 1.373693461141124e+01 1.381673071820141e+01 1.389980106850530e+01 1.398617386889042e+0111111
 1.407587689926806e+01 1.416893752262231e+01 1.426538269446278e+01 1.436523897200748e+01 1.446853252310338e+0111111
 1.457528913489200e+01 1.468553422222680e+01 1.479929283585077e+01 1.491658967034021e+01 1.503744907182319e+0111111
 1.516189504547890e+01 1.528995126282493e+01 1.542164106880016e+01 1.555698748864841e+01 1.569601323461073e+0111111
 1.583874071243167e+01 1.598519202768617e+01 1.613538899193258e+01 1.628935312869771e+01 1.644710567929960e+0111111
 1.660866760851280e+01 1.677405961008203e+01 1.694330211208879e+01 1.711641528217545e+01 1.729341903263222e+0111111
 1.747433302535064e+01 1.765917667664848e+01 1.784796916196980e+01 1.804072942046478e+01 1.823747615945192e+0111111
 1.843822785876797e+01 1.864300277500786e+01 1.885181894565851e+01 1.906469419313014e+01 1.928164612868773e+0111111
 1.950269215628610e+01 1.972784947631133e+01 1.995713508923175e+01 2.019056579916044e+01 2.042815821733354e+0111111
 2.066992876550405e+01 2.091589367925765e+01 2.116606901124873e+01 1.309899271164284e+01 1.307529322232862e+0111111
 1.305271889335109e+01 1.303142016185180e+01 1.301154561288148e+01 1.299323898031978e+01 1.297663486523115e+0111111
 1.296182633210192e+01 1.294887079449595e+01 1.293782303099222e+01 1.292873676749851e+01 1.292166444567413e+0111111
 1.291665725117487e+01 1.291376529790621e+01 1.291303765870269e+01 1.291452239572708e+01 1.291826659038582e+0111111
 1.292431637261253e+01 1.293271694941434e+01 1.294351263260967e+01 1.295674686571185e+01 1.297246224993292e+0111111
 1.299070056929855e+01 1.301150281487438e+01 1.303490920811559e+01 1.306095922335582e+01 1.308969160945737e+0111111
 1.312114441064747e+01 1.315535498656791e+01 1.319236003156628e+01 1.323219559325781e+01 1.327489709038720e+0111111
 1.332049933001961e+01 1.336903652408887e+01 1.342054230533150e+01 1.347504974263267e+01 1.353259135581109e+0111111
 1.359319912986720e+01 1.365690452871900e+01 1.372373850844841e+01 1.379373153008028e+01 1.386691357191452e+0111111
 1.394331414143178e+01 1.402296229485377e+01 1.410588670845480e+01 1.419211556130518e+01 1.428167658810124e+0111111
 1.437459710864869e+01 1.447090403715175e+01 1.457062389124933e+01 1.467378280080390e+01 1.478040651644853e+0111111
 1.489052041789766e+01 1.500414952202851e+01 1.512131849073796e+01 1.524205163858251e+01 1.536637294020646e+0111111
 1.549430603756471e+01 1.562587424694700e+01 1.576110056580827e+01 1.590000767941233e+01 1.604261796729374e+0111111
 1.618895350954418e+01 1.633903609292823e+01 1.649288721683439e+01 1.665052809906642e+01 1.681197968147982e+0111111
 1.697726263546874e+01 1.714639736730809e+01 1.731940402335469e+01 1.749630249511313e+01 1.767711242416959e+0111111
 1.786185320699838e+01 1.805054399964488e+01 1.824320372228939e+01 1.843985106369436e+01 1.864050448554021e+0111111
 1.884518222665208e+01 1.905390230712114e+01 1.926668253232416e+01 1.948354049684388e+01 1.970449358829354e+0111111
 1.992955899104831e+01 2.015875368988683e+01 2.039209447354466e+01 2.062959793818402e+01 2.087128049077935e+0111111
 2.111715835242531e+01 2.136724756156532e+01 1.331456704062403e+01 1.329060697056578e+01 1.326777120061642e+0111111
 1.324621131302134e+01 1.322607706933477e+01 1.320751336215068e+01 1.319065586297119e+01 1.317559811485604e+0111111
 1.316239749260428e+01 1.315110871484459e+01 1.314178526361521e+01 1.313447943049157e+01 1.312924241134522e+0111111
 1.312612444502010e+01 1.312517449824455e+01 1.312644051294677e+01 1.312996946214266e+01 1.313580737738024e+0111111
 1.314399937574787e+01 1.315458968632507e+01 1.316762167598895e+01 1.318313787451615e+01 1.320117999894242e+0111111
 1.322178897715655e+01 1.324500497072007e+01 1.327086739691253e+01 1.329941495001011e+01 1.333068562181083e+0111111
 1.336471672142366e+01 1.340154489434180e+01 1.344120614082213e+01 1.348373583359440e+01 1.352916873492456e+0111111
 1.357753901305620e+01 1.362888025805520e+01 1.368322549708094e+01 1.374060720910861e+01 1.380105733912487e+0111111
 1.386460731181965e+01 1.393128804479542e+01 1.400112996131495e+01 1.407416300260691e+01 1.415041663974896e+0111111
 1.422991988514627e+01 1.431270130362261e+01 1.439878902314094e+01 1.448821074516925e+01 1.458099375470637e+0111111
 1.467716493356269e+01 1.477675082539094e+01 1.487977754356504e+01 1.498627079994433e+01 1.509625593709162e+0111111
 1.520975793623513e+01 1.532680142501722e+01 1.544741068503661e+01 1.557160965918792e+01 1.569942195880406e+0111111
 1.583087087060749e+01 1.596597936347408e+01 1.610477009501627e+01 1.624726541798976e+01 1.639348738652940e+0111111
 1.654345776221882e+01 1.669719801999915e+01 1.685472935392158e+01 1.701607268274814e+01 1.718124865540576e+0111111
 1.735027765629813e+01 1.752317981047888e+01 1.769997498869158e+01 1.788068281227957e+01 1.806532265797031e+0111111
 1.825391366253766e+01 1.844647472734638e+01 1.864302452278154e+01 1.884358149256755e+01 1.904816385797912e+0111111
 1.925678962194800e+01 1.946947657306868e+01 1.968624228950580e+01 1.990710414280642e+01 2.013207930161999e+0111111
 2.036118473532896e+01 2.059443721759191e+01 2.083185332980356e+01 2.107344946447106e+01 2.131924182851318e+0111111
 2.156924644648045e+01 1.353066577792649e+01 1.350645057488940e+01 1.348335883108426e+01 1.346154323087961e+0111111
 1.344115467158910e+01 1.342233916741869e+01 1.340523342845916e+01 1.338993145970500e+01 1.337649059333173e+0111111
 1.336496548787544e+01 1.335540956708405e+01 1.334787506541833e+01 1.334241307138558e+01 1.333907356877376e+0111111
 1.333790547586813e+01 1.333895680956948e+01 1.334227457724278e+01 1.334790469566084e+01 1.335589217796301e+0111111
 1.336628115856383e+01 1.337911491760499e+01 1.339443590491501e+01 1.341228576340502e+01 1.343270535184894e+0111111
 1.345573476701595e+01 1.348141336513489e+01 1.350977978268204e+01 1.354087195649105e+01 1.357472714319089e+0111111
 1.361138193798192e+01 1.365087229276379e+01 1.369323353363157e+01 1.373850037775860e+01 1.378670694968508e+0111111
 1.383788679703295e+01 1.389207290566710e+01 1.394929771432422e+01 1.400959312872901e+01 1.407299053521838e+0111111
 1.413952081389300e+01 1.420921435131586e+01 1.428210105277560e+01 1.435821035413343e+01 1.443757123327033e+0111111
 1.452021222115109e+01 1.460616141252133e+01 1.469544647625276e+01 1.478809466535073e+01 1.488413282663868e+0111111
 1.498358741013207e+01 1.508648447811484e+01 1.519284971393061e+01 1.530270843049927e+01 1.541608557857136e+0111111
 1.553300578212243e+01 1.565349333882103e+01 1.577757215901959e+01 1.590526582182465e+01 1.603659758296019e+0111111
 1.617159038144994e+01 1.631026684612599e+01 1.645264930196766e+01 1.659875977627531e+01 1.674862000468325e+0111111
 1.690225143701659e+01 1.705967524299605e+01 1.722091231779511e+01 1.738598328745386e+01 1.755490851415374e+0111111
 1.772770810135672e+01 1.790440189881373e+01 1.808500950744541e+01 1.826955028409942e+01 1.845804334618782e+0111111
 1.865050757620831e+01 1.884696162615205e+01 1.904742392180262e+01 1.925191266692825e+01 1.946044584737106e+0111111
 1.967304123503639e+01 1.988971639178487e+01 2.011048867323039e+01 2.033537523244648e+01 2.056439302358430e+0111111
 2.079755880540378e+01 2.103488914472234e+01 2.127640041978056e+01 2.152210882353128e+01 2.177203036685020e+0111111
 1.374726534117126e+01 1.372280013990111e+01 1.369945761899410e+01 1.367739151983293e+01 1.365675383222546e+0111111
 1.363769165204430e+01 1.362034269303823e+01 1.360480140213913e+01 1.359112506175740e+01 1.357936826565951e+0111111
 1.356958437632037e+01 1.356182556949515e+01 1.355614287684464e+01 1.355258622663566e+01 1.355120448256175e+0111111
 1.355204548074497e+01 1.355515606499000e+01 1.356058212999071e+01 1.356836879775565e+01 1.357856016441954e+0111111
 1.359119941040955e+01 1.360632889447667e+01 1.362399017589245e+01 1.364422403621064e+01 1.366707050053369e+0111111
 1.369256885824069e+01 1.372075768314788e+01 1.375167485308452e+01 1.378535756887542e+01 1.382184237272868e+0111111
 1.386116516603206e+01 1.390336122656604e+01 1.394846522514475e+01 1.399651124169766e+01 1.404753278080740e+0111111
 1.410156278671929e+01 1.415863365784014e+01 1.421877726074295e+01 1.428202494369513e+01 1.434840754972759e+0111111
 1.441795542926217e+01 1.449069845231364e+01 1.456666602028344e+01 1.464588707736078e+01 1.472839012154674e+0111111
 1.481420321531619e+01 1.490335399593245e+01 1.499586968542797e+01 1.509177710026490e+01 1.519110266068792e+0111111
 1.529387239978185e+01 1.540011197224580e+01 1.550984666289456e+01 1.562310139489892e+01 1.573990073777390e+0111111
 1.586026891512584e+01 1.598422981216699e+01 1.611180698300642e+01 1.624302365772663e+01 1.637790274929812e+0111111
 1.651646689557773e+01 1.665873842403018e+01 1.680473933380805e+01 1.695449133341684e+01 1.710801584650859e+0111111
 1.726533401752889e+01 1.742646671722080e+01 1.759143454798997e+01 1.776025784913447e+01 1.793295670194255e+0111111
 1.810955093466298e+01 1.829006012735050e+01 1.847450361659068e+01 1.866290050010704e+01 1.885526964125444e+0111111
 1.905162967340098e+01 1.925199900420279e+01 1.945639581977398e+01 1.966483808875489e+01 1.987734356628203e+0111111
 2.009392979786196e+01 2.031461412315223e+01 2.053941367965188e+01 2.076834540630450e+01 2.100142604701533e+0111111
 2.123867215408688e+01 2.148010009157217e+01 2.172572603855216e+01 2.197556599233535e+01 1.396434400520909e+0111111
 1.393963356978229e+01 1.391604513215496e+01 1.389373345496580e+01 1.387285157481125e+01 1.385354762648367e+0111111
 1.383596028937296e+01 1.382018442885254e+01 1.380627726691083e+01 1.379429332473868e+01 1.378428589777889e+0111111
 1.377630709902322e+01 1.377040790063920e+01 1.376663817389282e+01 1.376504672736795e+01 1.376568134350763e+0111111
 1.376858881351940e+01 1.377381497069915e+01 1.378140472223488e+01 1.379140207955648e+01 1.380385021220448e+0111111
