 0950104   201     5   r   061214   061214   0                                 0
 6.112454938983318e+00 6.087659328852092e+00 6.062962883641627e+00 6.038333341820492e+00 6.013741848041739e+0011111
 5.989163607681775e+00 5.964578698572678e+00 5.939973030749418e+00 5.915339423602042e+00 5.890681405564413e+0011111
 5.866071694992053e+00 5.841650271757306e+00 5.817566345339922e+00 5.793975952134179e+00 5.771041527664922e+0011111
 5.748930692043572e+00 5.727813609225903e+00 5.707860488591156e+00 5.689238412764092e+00 5.672108123573300e+0011111
 5.656614761193405e+00 5.642850875427676e+00 5.630887535725374e+00 5.620794069162935e+00 5.612638185838210e+0011111
 5.606486037037772e+00 5.602402271053757e+00 5.600450086638885e+00 5.600691284127877e+00 5.603186314277226e+0011111
 5.607994324895952e+00 5.615173205348917e+00 5.624779629023856e+00 5.636869093854243e+00 5.651495960992802e+0011111
 5.668713491729656e+00 5.688573882745383e+00 5.711128299788300e+00 5.736426909860404e+00 5.764519006953588e+0011111
 5.795452946982906e+00 5.829276082041798e+00 5.866034888816603e+00 5.905774992508305e+00 5.948541190021555e+0011111
 5.994377472433297e+00 6.043327046747300e+00 6.095432356946721e+00 6.150735104357715e+00 6.209276267341061e+0011111
 6.271096120329905e+00 6.336234252232267e+00 6.404729584218406e+00 6.476620386913816e+00 6.551944297016790e+0011111
 6.630738333362600e+00 6.713038912452825e+00 6.798881863470478e+00 6.888302442799835e+00 6.981335348069381e+0011111
 7.078014731736922e+00 7.178374214233357e+00 7.282446896683259e+00 7.390265373217280e+00 7.501861742893707e+0011111
 7.617267621243034e+00 7.736514151450319e+00 7.859632015190089e+00 7.986651443125927e+00 8.117602225088763e+0011111
 8.252513719944629e+00 8.391414865165572e+00 8.534334186113000e+00 8.681299805045457e+00 8.832339449860795e+0011111
 8.987480462582210e+00 9.146749807598123e+00 9.310174079664538e+00 9.477779511678662e+00 9.649591982231714e+0011111
 9.825637022949531e+00 1.000593982562761e+01 1.019052525105534e+01 1.037941785506728e+01 1.057264185714989e+0111111
 1.077022115699520e+01 1.097217934770389e+01 1.117853972176865e+01 1.138932527690507e+01 1.160455872173387e+0111111
 1.182426248131873e+01 1.204845870256528e+01 1.227716925948351e+01 1.251041575831996e+01 1.274821954256114e+0111111
 1.299060169781447e+01 1.323758305656810e+01 1.348918420283522e+01 1.374542547668467e+01 1.400632697866223e+0111111
 1.427190857410593e+01 1.454218989735664e+01 1.481719035587025e+01 1.509692913423117e+01 1.538142519807165e+0111111
 7.913264865826337e+00 7.813852286906564e+00 7.722629690030248e+00 7.638532737923522e+00 7.560672553879406e+0011111
 7.488300747695837e+00 7.420782486326825e+00 7.357575527606660e+00 7.298213729245938e+00 7.242293955055820e+0011111
 7.189465587337726e+00 7.139422058147151e+00 7.091894020548388e+00 7.046643744686476e+00 7.003460212915519e+0011111
 6.962155405800293e+00 6.922561079491490e+00 6.884526051499607e+00 6.847913908834535e+00 6.812601062827064e+0011111
 6.778475090119188e+00 6.745433311187610e+00 6.713381567142400e+00 6.682233163013641e+00 6.651907951752289e+0011111
 6.622331538071337e+00 6.593434585307268e+00 6.565152211901543e+00 6.537423467058846e+00 6.510190877774925e+0011111
 6.483400061862557e+00 6.456999403943274e+00 6.430939793704074e+00 6.405174428115092e+00 6.379658681815290e+0011111
 6.354350052568355e+00 6.329208317004951e+00 6.304195548233569e+00 6.279276265259347e+00 6.254417914214569e+0011111
 6.229591381272183e+00 6.204771661075964e+00 6.179938685327918e+00 6.155078302298521e+00 6.130183376204790e+0011111
 6.105257610581902e+00 6.080374052574488e+00 6.055673185143914e+00 6.031304909710566e+00 6.007426148298852e+0011111
 5.984200322355809e+00 5.961795990218057e+00 5.940384686552460e+00 5.920138291909535e+00 5.901225256899704e+0011111
 5.883807574797442e+00 5.868031445310658e+00 5.853989614905265e+00 5.841753019820573e+00 5.831390867317894e+0011111
 5.822970759303050e+00 5.816558748156692e+00 5.812219390685052e+00 5.810015800088060e+00 5.810009695899152e+0011111
 5.812261451889095e+00 5.816830141958415e+00 5.823773584061095e+00 5.833148382219332e+00 5.845009966696066e+0011111
 5.859412632399581e+00 5.876409575597557e+00 5.896052929017435e+00 5.918393795411601e+00 5.943482279663051e+0011111
 5.971367519505577e+00 6.002097714929572e+00 6.035720156342041e+00 6.072281251714841e+00 6.111826643903545e+0011111
 6.154401125847413e+00 6.200048609174792e+00 6.248812226207972e+00 6.300734350501912e+00 6.355856616760607e+0011111
 6.414219940138880e+00 6.475864534939897e+00 6.540829932720329e+00 6.609154999817471e+00 6.680877954314151e+0011111
 6.756036382456044e+00 6.834667254539796e+00 6.916806940287291e+00 7.002491223723963e+00 7.091755317577694e+0011111
 7.184633877214638e+00 7.281161014129284e+00 7.381370309003672e+00 7.485294824352585e+00 7.592967116768598e+0011111
 7.704419248783289e+00 7.819682800357580e+00 7.938788880015266e+00 8.061768135633805e+00 8.188650764903912e+0011111
 8.319466525471533e+00 8.454244744772453e+00 8.593014329572906e+00 8.735803775225115e+00 8.882641174649436e+0011111
 9.033554227052877e+00 9.188570246393201e+00 9.347716169598382e+00 9.511018564549952e+00 9.678503637838769e+0011111
 9.850197242301101e+00 1.002612488434347e+01 1.020631173106281e+01 1.039078261716987e+01 1.057956205172213e+0111111
 1.077267422467330e+01 1.097014301324525e+01 1.117199198812893e+01 1.137824441951933e+01 1.158892328299091e+0111111
 1.180405126521847e+01 1.202365076954785e+01 1.224774392804439e+01 1.247635261143290e+01 1.270949840563461e+0111111
 1.294720263334915e+01 1.318948635997371e+01 1.343637039833724e+01 1.368787531332075e+01 1.394402142636547e+0111111
 1.420482881987299e+01 1.447031734150083e+01 1.474050660835436e+01 1.501541601108149e+01 1.529506471786964e+0111111
 1.557947167834951e+01 8.136586060965920e+00 8.037002113309535e+00 7.945611354859693e+00 7.861349040981733e+0011111
 7.783325932973973e+00 7.710793315888695e+00 7.643116062704589e+00 7.579751662815949e+00 7.520233726748969e+0011111
 7.464158888847970e+00 7.411176316708352e+00 7.360979239943186e+00 7.313298057438000e+00 7.267894688901932e+0011111
 7.224557914990617e+00 7.183099582653304e+00 7.143351382085926e+00 7.105161917564779e+00 7.068394563553374e+0011111
 7.032925522557767e+00 6.998642164561847e+00 6.965441604151699e+00 6.933229476049361e+00 6.901918877254482e+0011111
 6.871429450012704e+00 6.841686584736525e+00 6.812620726065882e+00 6.784166768684072e+00 6.756263532471537e+0011111
 6.728853309228216e+00 6.701881475645236e+00 6.675296169563474e+00 6.649048028909338e+00 6.623089995120257e+0011111
 6.597377185413272e+00 6.571866840921795e+00 6.546518360478512e+00 6.521293432509085e+00 6.496156306103835e+0011111
 6.471074322681170e+00 6.446018138187889e+00 6.420962522811180e+00 6.395887246170572e+00 6.370778076167967e+0011111
 6.345627900201531e+00 6.320440571908653e+00 6.295289438695984e+00 6.270315454588268e+00 6.245669177723030e+0011111
 6.221508377957798e+00 6.197997508368021e+00 6.175306320288038e+00 6.153607633078903e+00 6.133074415723933e+0011111
 6.113876480338045e+00 6.096177402452117e+00 6.080124549626577e+00 6.065810820831293e+00 6.053306988654155e+0011111
 6.042682115652197e+00 6.034003675309216e+00 6.027337604797123e+00 6.022748356443144e+00 6.020298947689452e+0011111
 6.020051009410269e+00 6.022064832506362e+00 6.026399412742721e+00 6.033112493824356e+00 6.042260608731093e+0011111
 6.053899119346487e+00 6.068082254429341e+00 6.084863145984221e+00 6.104293864090681e+00 6.126425450255727e+0011111
 6.151307949353786e+00 6.178990440218949e+00 6.209521064952981e+00 6.242947057011548e+00 6.279314768128325e+0011111
 6.318669694134759e+00 6.361056499730908e+00 6.406519042260082e+00 6.455100394536715e+00 6.506842923926076e+0011111
 6.561788285621579e+00 6.619977326814913e+00 6.681450196590141e+00 6.746246364742840e+00 6.814404638972029e+0011111
 6.885963181550291e+00 6.960959525481507e+00 7.039430590160038e+00 7.121412696542811e+00 7.206941581848786e+0011111
 7.296052413799429e+00 7.388779804413938e+00 7.485157823374354e+00 7.585220010973495e+00 7.688999390660904e+0011111
 7.796528481199177e+00 7.907839308445721e+00 8.022963416771812e+00 8.141931880131995e+00 8.264775312797079e+0011111
 8.391523879761523e+00 8.522207306838117e+00 8.656854890449667e+00 8.795495507130525e+00 8.938157622746475e+0011111
 9.084869301444254e+00 9.235658214340141e+00 9.390551647956505e+00 9.549576512415879e+00 9.712759349400777e+0011111
 9.880126339887694e+00 1.005170331166287e+01 1.022751574662822e+01 1.040758878790382e+01 1.059194724673467e+0111111
 1.078061560920805e+01 1.097361804278824e+01 1.117097840267460e+01 1.137272023798932e+01 1.157886679779983e+0111111
 1.178944103698239e+01 1.200446562193158e+01 1.222396293612020e+01 1.244795508551618e+01 1.267646390385883e+0111111
 1.290951095780151e+01 1.314711755192246e+01 1.338930473361050e+01 1.363609329782716e+01 1.388750379175131e+0111111
 1.414355651930829e+01 1.440427154558802e+01 1.466966870169371e+01 1.493976760179748e+01 1.521458762568999e+0111111
 1.549414792485510e+01 1.577846743265122e+01 8.360295615655826e+00 8.260544553997640e+00 8.168989800374185e+0011111
 8.084566201838861e+00 8.006384158009515e+00 7.933694630377564e+00 7.865862199719009e+00 7.802344089144942e+0011111
 7.742673664390763e+00 7.686447332857370e+00 7.633314050009527e+00 7.582966845588541e+00 7.535135928694601e+0011111
 7.489583037470308e+00 7.446096777601182e+00 7.404488752187868e+00 7.364590329330034e+00 7.326249926924438e+0011111
 7.289330814190614e+00 7.253709118232582e+00 7.219271996806732e+00 7.185916352705027e+00 7.153547609066744e+0011111
 7.122078650269417e+00 7.091428903770234e+00 7.061523542020709e+00 7.032292787646837e+00 7.003671308524047e+0011111
 6.975597692353457e+00 6.948013993006004e+00 6.920865343365792e+00 6.894099631778177e+00 6.867667241582351e+0011111
 6.841520855655633e+00 6.815615330467504e+00 6.789907646846988e+00 6.764356947456766e+00 6.738924673691015e+0011111
 6.713574817067067e+00 6.688274301635998e+00 6.662993513936490e+00 6.637707156834999e+00 6.612394955648637e+0011111
 6.587042579319655e+00 6.561642916735622e+00 6.536199946473958e+00 6.510787287330865e+00 6.485546331772424e+0011111
 6.460628258515449e+00 6.436191646163615e+00 6.412401938312108e+00 6.389430037427387e+00 6.367450038250578e+0011111
 6.346636259918222e+00 6.327159877118521e+00 6.309185540975418e+00 6.292861634603763e+00 6.278281472060988e+0011111
 6.265515907085605e+00 6.254633829046208e+00 6.245702556199620e+00 6.238787888351741e+00 6.233954155137035e+0011111
 6.231264263372894e+00 6.230779743247489e+00 6.232560793174506e+00 6.236666323209839e+00 6.243153996967602e+0011111
 6.252080272009088e+00 6.263500438701215e+00 6.277468657561310e+00 6.294037995118635e+00 6.313260458331075e+0011111
 6.335187027603994e+00 6.359867688461162e+00 6.387351461920644e+00 6.417686433629453e+00 6.450919781811407e+0011111
 6.487097804081255e+00 6.526265943177456e+00 6.568468811664565e+00 6.613750215654361e+00 6.662153177592067e+0011111
 6.713719958153832e+00 6.768492077297338e+00 6.826510334506941e+00 6.887814828272280e+00 6.952444989361545e+0011111
 7.020439664598004e+00 7.091836973959861e+00 7.166674393067827e+00 7.244988786795579e+00 7.326816424184706e+0011111
 7.412192992916146e+00 7.501153613348219e+00 7.593732852131853e+00 7.689964735415406e+00 7.789882761649649e+0011111
 7.893519914006054e+00 8.000908672418891e+00 8.112081025264654e+00 8.227068480689230e+00 8.345902077594719e+0011111
 8.468612396297994e+00 8.595229568870941e+00 8.725783289174419e+00 8.860302822594909e+00 8.998817015496115e+0011111
 9.141354304393381e+00 9.287942724861795e+00 9.438609920186908e+00 9.593383149766616e+00 9.752289297273407e+0011111
 9.915354878584900e+00 1.008260604949084e+01 1.025406861318391e+01 1.042976802754255e+01 1.060972941221195e+0111111
 1.079397755549086e+01 1.098253692103023e+01 1.117543165435058e+01 1.137268558918367e+01 1.157432225364488e+0111111
 1.178036487624122e+01 1.199083639172122e+01 1.220575944677156e+01 1.242515640556471e+01 1.264904935516429e+0111111
 1.287746011079023e+01 1.311041022095099e+01 1.334792097244431e+01 1.359001339523333e+01 1.383670826719960e+0111111
 1.408802611877883e+01 1.434398723748158e+01 1.460461167230332e+01 1.486991923802735e+01 1.513992951942224e+0111111
 1.541466187533995e+01 1.569413544271476e+01 1.597836914046736e+01 8.584373815063657e+00 8.484459644755818e+0011111
 8.392744850322643e+00 8.308163864878395e+00 8.229826722773204e+00 8.156984059844733e+00 8.089000163668279e+0011111
 8.025331990873546e+00 7.965512662787249e+00 7.909138360664716e+00 7.855857828929619e+00 7.805363898738652e+0011111
 7.757386590819607e+00 7.711687463232177e+00 7.668054948203445e+00 7.626300480542978e+00 7.586255263938373e+0011111
 7.547767554603069e+00 7.510700367090534e+00 7.474929526611895e+00 7.440342007760336e+00 7.406834642328611e+0011111
 7.374312742873123e+00 7.342688975312583e+00 7.311882547126059e+00 7.281818408162981e+00 7.252426554852318e+0011111
 7.223641424451618e+00 7.195401368964112e+00 7.167648201024336e+00 7.140326806532058e+00 7.113384821206132e+0011111
 7.086772370625300e+00 7.060441875795974e+00 7.034347928887614e+00 7.008447246516016e+00 6.982698710781786e+0011111
 6.957063511032227e+00 6.931505401700693e+00 6.905991093051547e+00 6.880490791375260e+00 6.854978901910790e+0011111
 6.829434899896290e+00 6.803844466712285e+00 6.778200686624138e+00 6.752507644578214e+00 6.726839201690294e+0011111
 6.701337155816166e+00 6.676153269380576e+00 6.651446889544315e+00 6.627384407794471e+00 6.604137833904480e+0011111
 6.581882494498067e+00 6.560794017360822e+00 6.541044906267553e+00 6.522801103263011e+00 6.506212083019611e+0011111
 6.491371282856060e+00 6.478349300628221e+00 6.467215028858800e+00 6.458035935772629e+00 6.450877701885606e+0011111
 6.445804510323798e+00 6.442879137403281e+00 6.442162996113304e+00 6.443716178740640e+00 6.447597498446593e+0011111
 6.453864529665276e+00 6.462573647240513e+00 6.473780064251530e+00 6.487537868506124e+00 6.503900057700231e+0011111
 6.522918573256394e+00 6.544644332866635e+00 6.569127261771921e+00 6.596416322816442e+00 6.626559545318327e+0011111
 6.659604052801194e+00 6.695596089631232e+00 6.734581046605276e+00 6.776603485535146e+00 6.821707162872525e+0011111
 6.869935052416899e+00 6.921329367149388e+00 6.975931580231626e+00 7.033782445208912e+00 7.094922015454647e+0011111
 7.159389662890876e+00 7.227224096018777e+00 7.298463377291575e+00 7.373144939858878e+00 7.451305603712935e+0011111
 7.532981627335174e+00 7.618208721269257e+00 7.707021957208629e+00 7.799455853400294e+00 7.895544389792328e+0011111
 7.995321020659018e+00 8.098818686858216e+00 8.206069827729339e+00 8.317106392643492e+00 8.431959852214511e+0011111
 8.550661209181268e+00 8.673241008972088e+00 8.799729349960007e+00 8.930155893419915e+00 9.064549873195663e+0011111
 9.202940105088583e+00 9.345354995974596e+00 9.491822552660153e+00 9.642370390485400e+00 9.797025741682619e+0011111
 9.955815463498709e+00 1.011876604608928e+01 1.028590362019215e+01 1.045725396458733e+01 1.063284251335140e+0111111
 1.081269436291220e+01 1.099683427891137e+01 1.118528670288033e+01 1.137807575873668e+01 1.157522525910631e+0111111
 1.177675871147752e+01 1.198269932419188e+01 1.219307001227823e+01 1.240789340313411e+01 1.262719184205939e+0111111
 1.285098739764819e+01 1.307930186704150e+01 1.331215678104744e+01 1.354957340913075e+01 1.379157276427814e+0111111
 1.403817560774113e+01 1.428940245366209e+01 1.454527357358566e+01 1.480580900085990e+01 1.507102853493088e+0111111
 1.534095174553186e+01 1.561559797677376e+01 1.589498635113651e+01 1.617913577336604e+01 8.808802629066292e+0011111
 8.708729046309426e+00 8.616857897396876e+00 8.532123190780279e+00 8.453634587695117e+00 8.380642392647182e+0011111
 8.312510595976653e+00 8.248695885047663e+00 8.188731134946881e+00 8.132212299678903e+00 8.078787912073343e+0011111
 8.028150604566951e+00 7.980030209692613e+00 7.934188105835211e+00 7.890412552337115e+00 7.848514816404304e+0011111
 7.808325938071809e+00 7.769694012667201e+00 7.732481895560396e+00 7.696565253516960e+00 7.661830902140108e+0011111
 7.628175380763945e+00 7.595503725540431e+00 7.563728419751043e+00 7.532768630196608e+00 7.502549140651327e+0011111
 7.472999716216671e+00 7.444054558886879e+00 7.415651780716375e+00 7.387732949158655e+00 7.360242699402569e+0011111
 7.333128410941491e+00 7.306339948027458e+00 7.279829466160813e+00 7.253551289396341e+00 7.227461866020741e+0011111
 7.201519813020618e+00 7.175686062559106e+00 7.149924126098534e+00 7.124200493301099e+00 7.098485182550019e+0011111
 7.072752456614014e+00 7.046981708977933e+00 7.021158511747071e+00 6.995275792959853e+00 6.969337829892930e+0011111
 6.943418954222272e+00 6.917661353277001e+00 6.892217335765791e+00 6.867246976303322e+00 6.842917570307693e+0011111
 6.819402189248729e+00 6.796877345896027e+00 6.775519932522107e+00 6.755503741091690e+00 6.736995968420869e+0011111
 6.720147152571255e+00 6.705050985413394e+00 6.691778001368496e+00 6.680396984018957e+00 6.670975101712554e+0011111
 6.663577970136157e+00 6.658269882308571e+00 6.655113616380575e+00 6.654170446826415e+00 6.655500341853505e+0011111
 6.659162002665661e+00 6.665212901937349e+00 6.673709321349800e+00 6.684706388084275e+00 6.698258110205813e+0011111
 6.714417410898883e+00 6.733236161536250e+00 6.754765213580793e+00 6.779054429330985e+00 6.806152711530403e+0011111
 6.836108031868070e+00 6.868967458401593e+00 6.904777181937540e+00 6.943582541405871e+00 6.985428048266492e+0011111
 7.030357409986244e+00 7.078413552623801e+00 7.129638642561123e+00 7.184074107417138e+00 7.241760656179895e+0011111
 7.302738298591829e+00 7.367046363820858e+00 7.434723518449449e+00 7.505807783812754e+00 7.580336552713562e+0011111
 7.658346605543636e+00 7.739874125836494e+00 7.824954715277733e+00 7.913623408196596e+00 8.005914685561185e+0011111
 8.101862488499906e+00 8.201500265748544e+00 8.304860975759915e+00 8.411977015823823e+00 8.522880294005395e+0011111
 8.637602241353504e+00 8.756173822653091e+00 8.878625546872362e+00 9.004987477312213e+00 9.135289241467650e+0011111
 9.269560040608244e+00 9.407828659088050e+00 9.550123473391341e+00 9.696472460923644e+00 9.846903208555737e+0011111
 1.000144292092818e+01 1.016011842852446e+01 1.032295619551996e+01 1.048998232741414e+01 1.066122257845246e+0111111
 1.083670235884586e+01 1.101644674179325e+01 1.120048047031433e+01 1.138882796389807e+01 1.158151332497372e+0111111
 1.177856034520925e+01 1.197999251164356e+01 1.218583301265691e+01 1.239610474378581e+01 1.261083031338673e+0111111
 1.283003204815298e+01 1.305373199849108e+01 1.328195194375863e+01 1.351471339737081e+01 1.375203761177682e+0111111
 1.399394558331305e+01 1.424045805693416e+01 1.449159553082823e+01 1.474737826091777e+01 1.500782626525090e+0111111
 1.527295932828656e+01 1.554279700507475e+01 1.581735862533841e+01 1.609666329745664e+01 1.638072991235388e+0111111
 9.033565712249914e+00 8.933336044324216e+00 8.841311903231567e+00 8.756426856520932e+00 8.677790179848243e+0011111
 8.604651836816579e+00 8.536375513194436e+00 8.472417621479178e+00 8.412310786270634e+00 8.355650731137031e+0011111
 8.302085774961768e+00 8.251308349764866e+00 8.203048098702588e+00 8.157066219706939e+00 8.113150798772011e+0011111
 8.071112935279274e+00 8.030783505574389e+00 7.992010444198246e+00 7.954656447532299e+00 7.918597024153668e+0011111
 7.883718831368788e+00 7.849918249276557e+00 7.817100153096136e+00 7.785176851974715e+00 7.754067168516461e+0011111
 7.723695638190302e+00 7.693991864006413e+00 7.664890003639869e+00 7.636327942176472e+00 7.608246997243803e+0011111
 7.580591548986565e+00 7.553308716553818e+00 7.526348098865175e+00 7.499661581914445e+00 7.473203217529540e+0011111
 7.446929181315602e+00 7.420797820410097e+00 7.394769804516032e+00 7.368808396133007e+00 7.342879857422356e+0011111
 7.316954010849152e+00 7.291004967375563e+00 7.265012027860298e+00 7.238960748482657e+00 7.212844137584860e+0011111
 7.186666584144466e+00 7.160502467791981e+00 7.134494438150170e+00 7.108795591273093e+00 7.083566706219481e+0011111
 7.058975937230549e+00 7.035197370250577e+00 7.012408656370589e+00 6.990787905649083e+00 6.970510154416772e+0011111
 6.951743814890245e+00 6.934640456930044e+00 6.919294015107880e+00 6.905774957305450e+00 6.894152002141088e+0011111
 6.884492254728762e+00 6.876861267813443e+00 6.871323099871448e+00 6.867940370296592e+00 6.866774354321758e+0011111
 6.867885142963472e+00 6.871331339205567e+00 6.877170297649330e+00 6.885458192998635e+00 6.896250054881861e+0011111
 6.909599801833815e+00 6.925560274354912e+00 6.944183266992080e+00 6.965519559410522e+00 6.989618946441456e+0011111
 7.016530267104877e+00 7.046301432616277e+00 7.078979453394386e+00 7.114610465091836e+00 7.153239753675075e+0011111
 7.194911779582808e+00 7.239670200993876e+00 7.287557896235821e+00 7.338616985367572e+00 7.392888850967510e+0011111
 7.450414158159471e+00 7.511232873908196e+00 7.575384285614322e+00 7.642907019038851e+00 7.713839055586334e+0011111
 7.788217748972913e+00 7.866079841307544e+00 7.947461478610245e+00 8.032398225792635e+00 8.120925081123589e+0011111
 8.213076490201836e+00 8.308886359457428e+00 8.408388069201100e+00 8.511614486241763e+00 8.618597976089013e+0011111
 8.729370414759542e+00 8.843963200202623e+00 8.962407276755254e+00 9.084733179269280e+00 9.210970941766714e+0011111
 9.341150156164247e+00 9.475299989557811e+00 9.613449193435851e+00 9.755626112637307e+00 9.901858694062797e+0011111
 1.005217449514594e+01 1.020660069209155e+01 1.036516408788825e+01 1.052789112010206e+01 1.069480786845786e+0111111
 1.086594006221483e+01 1.104131308734320e+01 1.122095199350747e+01 1.140488150086302e+01 1.159312600667127e+0111111
 1.178570959173974e+01 1.198265602669209e+01 1.218398877807379e+01 1.238973101429806e+01 1.259990561143792e+0111111
 1.281453515886867e+01 1.303364196476498e+01 1.325724806145874e+01 1.348537521065967e+01 1.371804490854561e+0111111
 1.395527839072374e+01 1.419709663706949e+01 1.444352037644419e+01 1.469457009129757e+01 1.495026602215677e+0111111
 1.521062817200630e+01 1.547567631056253e+01 1.574542997844382e+01 1.601990849124277e+01 1.629913094350034e+0111111
 1.658311621258637e+01 9.258647399034006e+00 9.158265311455560e+00 9.066091398284961e+00 8.981059055373215e+0011111
 8.902277392948477e+00 8.828996020059282e+00 8.760578306998005e+00 8.696480382745960e+00 8.636234614551999e+0011111
 8.579436490104403e+00 8.525734110032303e+00 8.474819702541815e+00 8.426422718747887e+00 8.380304174054737e+0011111
 8.336251979508056e+00 8.294077065446032e+00 8.253610143611070e+00 8.214698987085102e+00 8.177206132777661e+0011111
 8.141006930738058e+00 8.105987879742340e+00 8.072045200492820e+00 8.039083607156783e+00 8.007015245455690e+0011111
 7.975758771546515e+00 7.945238550858392e+00 7.915383960129172e+00 7.886128779342035e+00 7.857410664063988e+0011111
 7.829170849074027e+00 7.801353575043991e+00 7.773905696088085e+00 7.746776541301893e+00 7.719917722765937e+0011111
 7.693283015636170e+00 7.666828318217611e+00 7.640511702856855e+00 7.614293571365350e+00 7.588136931174005e+0011111
 7.562007809959377e+00 7.535875826186660e+00 7.509714929600721e+00 7.483504317461592e+00 7.457229517269722e+0011111
 7.430883602956462e+00 7.404471143840820e+00 7.378066834729140e+00 7.351813701363359e+00 7.325865166997759e+0011111
 7.300382810647045e+00 7.275535877828004e+00 7.251499430961506e+00 7.228452209699363e+00 7.206573492765369e+0011111
 7.186039514184002e+00 7.167019859013871e+00 7.149667093868390e+00 7.134075380450102e+00 7.120315113541669e+0011111
 7.108454942422513e+00 7.098561906368184e+00 7.090701494817015e+00 7.084937704741615e+00 7.081333095294196e+0011111
 7.079948839819967e+00 7.080844775344718e+00 7.084079449653901e+00 7.089710274512255e+00 7.097793472585943e+0011111
 7.108383961922267e+00 7.121535558794968e+00 7.137301010179081e+00 7.155732024597148e+00 7.176879302146788e+0011111
 7.200792563664623e+00 7.227520579000487e+00 7.257111194389664e+00 7.289611358922466e+00 7.325067150118150e+0011111
 7.363523798616920e+00 7.405025712008669e+00 7.449616497820465e+00 7.497338985686474e+00 7.548235248727355e+0011111
 7.602346624165023e+00 7.659713733200743e+00 7.720376500184219e+00 7.784374171100474e+00 7.851745331401712e+0011111
 7.922527923210990e+00 7.996759261921908e+00 8.074476052220891e+00 8.155714403554500e+00 8.240509845065777e+0011111
 8.328897340021477e+00 8.420911299751054e+00 8.516585597118636e+00 8.615953579546357e+00 8.719048081608754e+0011111
 8.825901437214643e+00 8.936545491394984e+00 9.051011611711591e+00 9.169330699302325e+00 9.291533199578270e+0011111
 9.417649112585647e+00 9.547708003047019e+00 9.681739010092988e+00 9.819770856698451e+00 9.961831889798631e+0011111
 1.010795006481437e+01 1.025815290843193e+01 1.041246756712557e+01 1.057092081523261e+01 1.073353906267976e+0111111
 1.090034836250291e+01 1.107137441816618e+01 1.124664259068685e+01 1.142617790557092e+01 1.161000505956592e+0111111
 1.179814842723579e+01 1.199063206736361e+01 1.218747972918729e+01 1.238871485847343e+01 1.259436060343381e+0111111
 1.280443982049010e+01 1.301897507989097e+01 1.323798867118560e+01 1.346150260855951e+01 1.368953863603475e+0111111
 1.392211823254098e+01 1.415926261685888e+01 1.440099275244221e+01 1.464732935211988e+01 1.489829288268360e+0111111
 1.515390356936309e+01 1.541418140019296e+01 1.567914613027495e+01 1.594881728593640e+01 1.622321416879159e+0111111
 1.650235585970543e+01 1.678626122266419e+01 9.484032943743074e+00 9.383501616434760e+00 9.291181419509943e+0011111
 9.206005208399201e+00 9.127081581396947e+00 9.053659989756346e+00 8.985103744189782e+00 8.920868684191866e+0011111
 8.860486909976991e+00 8.803553665474526e+00 8.749716826638707e+00 8.698668412625210e+00 8.650137678236240e+0011111
 8.603885452865832e+00 8.559699469775271e+00 8.517390487953449e+00 8.476789052667726e+00 8.437742774024169e+0011111
 8.400114028231847e+00 8.363778005815863e+00 8.328621046209408e+00 8.294539210047731e+00 8.261437049880664e+0011111
 8.229226547509725e+00 8.197826192190840e+00 8.167160178870427e+00 8.137157709709689e+00 8.107752385614106e+0011111
 8.078881677496076e+00 8.050486469703817e+00 8.022510670573400e+00 7.994900950064673e+00 7.967606586588128e+0011111
 7.940578932969124e+00 7.913771482878304e+00 7.887139852406357e+00 7.860641833937311e+00 7.834237555787398e+0011111
 7.807889764088896e+00 7.781564244962563e+00 7.755230404727646e+00 7.728862022442122e+00 7.702438180720559e+0011111
 7.675944365516979e+00 7.649373701453047e+00 7.622730921112872e+00 7.596091015181197e+00 7.569597455440205e+0011111
 7.543404273595155e+00 7.517673702764366e+00 7.492575617618416e+00 7.468286212694035e+00 7.444985509511421e+0011111
 7.422853905671210e+00 7.402068783449933e+00 7.382800855035948e+00 7.365203645259755e+00 7.349371523458458e+0011111
 7.335374801051018e+00 7.323282050329686e+00 7.313160239231420e+00 7.305074790161623e+00 7.299089636323948e+0011111
 7.295267275563194e+00 7.293668821765833e+00 7.294354053884708e+00 7.297381462673449e+00 7.302808295223636e+0011111
 7.310690597405881e+00 7.321083259079035e+00 7.334040192725513e+00 7.349614122952599e+00 7.367856660476553e+0011111
 7.388818415707465e+00 7.412549026819950e+00 7.439097187096145e+00 7.468510671504078e+00 7.500836362489825e+0011111
 7.536120274972880e+00 7.574407580543629e+00 7.615742630869011e+00 7.660168980317740e+00 7.707729407819733e+0011111
 7.758465937979182e+00 7.812419861460598e+00 7.869631754670325e+00 7.930141498756467e+00 7.993988297949998e+0011111
 8.061210697270887e+00 8.131846599623124e+00 8.205933282300379e+00 8.283507412926753e+00 8.364605064853269e+0011111
 8.449261732032538e+00 8.537512343392150e+00 8.629391276726487e+00 8.724932372127334e+00 8.824168944970673e+0011111
 8.927133798478806e+00 9.033859235873532e+00 9.144377072138406e+00 9.258718645404462e+00 9.376914827974710e+0011111
 9.498996037002534e+00 9.624992244836482e+00 9.754932989045802e+00 9.888847382137659e+00 1.002676412097997e+0111111
 1.016871149593933e+01 1.031471739974600e+01 1.046480933609632e+01 1.061901442800173e+01 1.077735942589470e+0111111
 1.093987071550022e+01 1.110657435060745e+01 1.127749604345449e+01 1.145266112924641e+01 1.163209460836332e+0111111
 1.181582115327668e+01 1.200386511507562e+01 1.219625052982508e+01 1.239300112476019e+01 1.259414032432214e+0111111
 1.279969125603932e+01 1.300967675625945e+01 1.322411937573644e+01 1.344304138507579e+01 1.366646478004433e+0111111
 1.389441128674605e+01 1.412690236667065e+01 1.436395922161575e+01 1.460560279848926e+01 1.485185379399298e+0111111
 1.510273265919300e+01 1.535825960397873e+01 1.561845460141461e+01 1.588333739198798e+01 1.615292748775425e+0111111
 1.642724417638551e+01 1.670630652512232e+01 1.699013338463320e+01 9.709709265442557e+00 9.609031637486432e+0011111
 9.516567973323722e+00 9.431250794183361e+00 9.352188399544044e+00 9.278629839250506e+00 9.209937940093587e+0011111
 9.145568373926746e+00 9.085053255124153e+00 9.027987599969110e+00 8.974019051051094e+00 8.922839411260462e+0011111
 8.874177733084762e+00 8.827794654907308e+00 8.783477728033789e+00 8.741037536621103e+00 8.700304456551148e+0011111
 8.661125932519345e+00 8.623364177994187e+00 8.586894222262531e+00 8.551602243968048e+00 8.517384142448758e+0011111
 8.484144307578562e+00 8.451794556312054e+00 8.420253210171925e+00 8.389444292850074e+00 8.359296831186581e+0011111
 8.329744246259539e+00 8.300723824337718e+00 8.272176260162961e+00 8.244045267564708e+00 8.216277254874218e+0011111
 8.188821065095285e+00 8.161627801322620e+00 8.134650915231129e+00 8.107845809424013e+00 8.081169990897692e+0011111
 8.054583308680497e+00 8.028048241242528e+00 8.001530325988677e+00 7.974998748888315e+00 7.948427108799755e+0011111
 7.921794362596467e+00 7.895085941739585e+00 7.868295006504577e+00 7.841426435435365e+00 7.814555495442475e+0011111
 7.787826082414816e+00 7.761392812549039e+00 7.735418668125543e+00 7.710074430808342e+00 7.685537167614894e+0011111
 7.661987779287329e+00 7.639608011943471e+00 7.618576520386485e+00 7.599065095102157e+00 7.581228177078673e+0011111
 7.565160319659166e+00 7.550931736678653e+00 7.538610912293620e+00 7.528264734500970e+00 7.519958552195192e+0011111
 7.513756230100962e+00 7.509720201514925e+00 7.507911518842266e+00 7.508389901947281e+00 7.511213784365358e+0011111
 7.516440357438700e+00 7.524125612452270e+00 7.534324380851097e+00 7.547090372625475e+00 7.562476212951999e+0011111
 7.580533491907219e+00 7.601312916137349e+00 7.624864076985092e+00 7.651235581689045e+00 7.680475125764492e+0011111
 7.712629517961567e+00 7.747744704544800e+00 7.785865792875621e+00 7.827037074289144e+00 7.871302046264114e+0011111
 7.918703433890040e+00 7.969283210641859e+00 8.023082618473802e+00 8.080142187248361e+00 8.140501753517619e+0011111
 8.204200478675050e+00 8.271276866497368e+00 8.341768780096874e+00 8.415713458303021e+00 8.493147531495039e+0011111
 8.574107036904079e+00 8.658627433405385e+00 8.746743615819421e+00 8.838489928740266e+00 8.933900179910381e+0011111
 9.033007653158172e+00 9.135845120916533e+00 9.242444856337361e+00 9.352838645019386e+00 9.467057796363145e+0011111
 9.585133154567883e+00 9.707095109285135e+00 9.832973605941049e+00 9.962798155741536e+00 1.009659784537089e+0111111
 1.023440134639760e+01 1.037623692439652e+01 1.052213244779946e+01 1.067211539648398e+01 1.082621287010992e+0111111
 1.098445159621347e+01 1.114685793806754e+01 1.131345790231692e+01 1.148427714639626e+01 1.165934098573936e+0111111
 1.183867440078636e+01 1.202230204379677e+01 1.221024824547457e+01 1.240253702675471e+01 1.259919213190902e+0111111
 1.280023697087404e+01 1.300569464974646e+01 1.321558798412466e+01 1.342993950465968e+01 1.364877146246726e+0111111
 1.387210583440668e+01 1.409996432822782e+01 1.433236838759296e+01 1.456933919697408e+01 1.481089768643202e+0111111
 1.505706453627836e+01 1.530786018162564e+01 1.556330481682731e+01 1.582341839981181e+01 1.608822065631377e+0111111
 1.635773108400352e+01 1.663196895652106e+01 1.691095332741408e+01 1.719470303398440e+01 9.935663900113198e+0011111
 9.834842901188491e+00 9.742238587780497e+00 9.656783153603023e+00 9.577584605564681e+00 9.503891729874075e+0011111
 9.435067113776588e+00 9.370566138859019e+00 9.309920456292218e+00 9.252724890138071e+00 9.198627126455916e+0011111
 9.147318811210974e+00 9.098528786719950e+00 9.052017493726096e+00 9.007572295973848e+00 8.965003598039305e+0011111
 8.924141602389039e+00 8.884833584882019e+00 8.846941593327958e+00 8.810340493283199e+00 8.774916300465735e+0011111
 8.740564751075864e+00 8.707190070713741e+00 8.674703910084745e+00 8.643024421728674e+00 8.612075456946195e+0011111
 8.581785866194814e+00 8.552088889702345e+00 8.522921628073021e+00 8.494224585385888e+00 8.465941279832606e+0011111
 8.438017919421398e+00 8.410403142780504e+00 8.383047827706507e+00 8.355904972873766e+00 8.328929664675316e+0011111
 8.302079354654010e+00 8.275313739160946e+00 8.248595022497225e+00 8.221888486100827e+00 8.195163087335967e+0011111
 8.168392235320942e+00 8.141554750069117e+00 8.114635995559135e+00 8.087629152592569e+00 8.060539228196026e+0011111
 8.033441745565041e+00 8.006481002320704e+00 7.979812174563101e+00 7.953598967380323e+00 7.928013041994772e+0011111
 7.903232482706916e+00 7.879439311675305e+00 7.856816223180894e+00 7.835542878280928e+00 7.815792409259647e+0011111
 7.797720239400728e+00 7.781421078086250e+00 7.766965023141005e+00 7.754420455709888e+00 7.743854171941233e+0011111
 7.735331437802057e+00 7.728916042213215e+00 7.724670348352558e+00 7.722655343042765e+00 7.722930684187153e+0011111
 7.725554746255820e+00 7.730584663847871e+00 7.738076373376605e+00 7.748084652934779e+00 7.760663160407050e+0011111
 7.775864469901727e+00 7.793740106574911e+00 7.814340579922874e+00 7.837715415616560e+00 7.863913203494659e+0011111
 7.892981726465004e+00 7.924967745563895e+00 7.959917130655052e+00 7.997874918141506e+00 8.038885333194740e+0011111
 8.082991811364694e+00 8.130237019562298e+00 8.180662876414274e+00 8.234310571992848e+00 8.291220586928496e+0011111
 8.351432710916448e+00 8.414986060629266e+00 8.481919097050273e+00 8.552269642244097e+00 8.626074895579382e+0011111
 8.703371449422505e+00 8.784195304317977e+00 8.868581883673864e+00 8.956566047969043e+00 9.048182108498995e+0011111
 9.143463840677683e+00 9.242444496910721e+00 9.345156819056859e+00 9.451633050491843e+00 9.561904947791170e+0011111
 9.676003792044835e+00 9.793960399818229e+00 9.915805133773391e+00 1.004156791296226e+01 1.017127822280552e+0111111
 1.030496512476738e+01 1.044265726573971e+01 1.058438288714444e+01 1.073016983376595e+01 1.088004556232320e+0111111
 1.103403714979079e+01 1.119217130147879e+01 1.135447435887971e+01 1.152097230729126e+01 1.169169078322263e+0111111
 1.186665508159281e+01 1.204589016272731e+01 1.222942065916147e+01 1.241727088225607e+01 1.260946482863277e+0111111
 1.280602618643488e+01 1.300697834142009e+01 1.321234438288992e+01 1.342214710946270e+01 1.363640903469448e+0111111
 1.385515239255266e+01 1.407839914838265e+01 1.430617102448639e+01 1.453848945131084e+01 1.477537559545973e+0111111
 1.501685036965515e+01 1.526293443737403e+01 1.551364821737455e+01 1.576901188811400e+01 1.602904539206203e+0111111
 1.629376843991250e+01 1.656320051469478e+01 1.683736087579067e+01 1.711626856285638e+01 1.739994239965399e+0111111
 1.016188499990001e+01 1.006092352842330e+01 9.968181364758415e+00 9.882590380179757e+00 9.803258293938562e+0011111
 9.729433633297678e+00 9.660478750393201e+00 9.595848811576797e+00 9.535075269401247e+00 9.477752737655052e+0011111
 9.423528477188993e+00 9.372093906758145e+00 9.323177890077678e+00 9.276540797648980e+00 9.231969798515784e+0011111
 9.189275111569078e+00 9.148286760630018e+00 9.108851848231081e+00 9.070832252660392e+00 9.034102672412713e+0011111
 8.998548957399363e+00 8.964066678181473e+00 8.930559893901957e+00 8.897940087096723e+00 8.866125239616409e+0011111
 8.835039028832851e+00 8.804610127409426e+00 8.774771593397197e+00 8.745460340453938e+00 8.716616680717513e+0011111
 8.688183935424489e+00 8.660108110858776e+00 8.632337639739360e+00 8.604823190789016e+00 8.577517552021359e+0011111
 8.550375596254209e+00 8.523354340447945e+00 8.496413114563035e+00 8.469514081212793e+00 8.442622427868478e+0011111
 8.415706874989011e+00 8.388740632400372e+00 8.361702372138833e+00 8.334577377703667e+00 8.307358835250112e+0011111
 8.280051862695553e+00 8.252732219358707e+00 8.225544581852885e+00 8.198644661047329e+00 8.172196857725108e+0011111
 8.146373684241055e+00 8.121354213335110e+00 8.097321561770986e+00 8.074459582243254e+00 8.052949095587353e+0011111
 8.032964098125742e+00 8.014660866402567e+00 7.998134541281557e+00 7.983455149025794e+00 7.970690948938633e+0011111
 7.959908629898509e+00 7.951173362402963e+00 7.944548849459301e+00 7.940097376071100e+00 7.937879857157163e+0011111
 7.937955883801247e+00 7.940383767782123e+00 7.945220584366737e+00 7.952522213378470e+00 7.962343378569011e+0011111
 7.974737685337796e+00 7.989757656852113e+00 8.007454768625511e+00 8.027879481617710e+00 8.051081273919573e+0011111
 8.077108671087617e+00 8.106009275191623e+00 8.137829792638094e+00 8.172616072057155e+00 8.210413227978094e+0011111
 8.251265451311840e+00 8.295216109251262e+00 8.342307804911870e+00 8.392582397175417e+00 8.446081019974587e+0011111
 8.502844101017908e+00 8.562911379957839e+00 8.626321926007755e+00 8.693114155016856e+00 8.763325846014382e+0011111
 8.836994157233882e+00 8.914155641632744e+00 8.994846261919523e+00 9.079101405104604e+00 9.166955896588689e+0011111
 9.258444013803750e+00 9.353599499422195e+00 9.452455574147933e+00 9.555044949105010e+00 9.661399837836719e+0011111
 9.771551967930661e+00 9.885532592282024e+00 1.000337250000840e+01 1.012510202702978e+01 1.025075106632464e+0111111
 1.038034907787533e+01 1.051392509831270e+01 1.065150775027273e+01 1.079312525147410e+01 1.093880542352786e+0111111
 1.108857570048878e+01 1.124246313715742e+01 1.140049441714237e+01 1.156269586069105e+01 1.172909343229752e+0111111
 1.189971274809474e+01 1.207457908303997e+01 1.225371737789930e+01 1.243715224603951e+01 1.262490798003300e+0111111
 1.281700855808301e+01 1.301347765027489e+01 1.321433862465955e+01 1.341961455317438e+01 1.362932821740785e+0111111
 1.384350211421248e+01 1.406215846117093e+01 1.428531920192126e+01 1.451300601134414e+01 1.474524030061876e+0111111
 1.498204322214914e+01 1.522343567436763e+01 1.546943830641701e+01 1.572007152271721e+01 1.597535548742558e+0111111
 1.623531014737958e+01 1.649995521549235e+01 1.676931015974301e+01 1.704339422488263e+01 1.732222643633753e+0111111
 1.760582560402333e+01 1.038836133311229e+01 1.028726223437766e+01 1.019438497995958e+01 1.010866112200421e+0111111
 1.002919809555423e+01 9.955244172394458e+00 9.886161472960726e+00 9.821404951669969e+00 9.760505865617668e+0011111
 9.703058646887577e+00 9.648710386095809e+00 9.597152338856448e+00 9.548113013615325e+00 9.501352506098128e+0011111
 9.456657943810042e+00 9.413839569342164e+00 9.372727225043626e+00 9.333167834492913e+00 9.295023101582672e+0011111
 9.258167553515614e+00 9.222486870715224e+00 9.187876454890489e+00 9.154240195911447e+00 9.121489405663748e+0011111
 9.089541893106858e+00 9.058321159709275e+00 9.027755698545535e+00 8.997778383829440e+00 8.968325940701462e+0011111
 8.939338487832458e+00 8.910759147977167e+00 8.882533724119327e+00 8.854610441391999e+00 8.826939757610528e+0011111
 8.799474248075475e+00 8.772168573301538e+00 8.744979541449316e+00 8.717866280312588e+00 8.690790536403918e+0011111
 8.663717123367441e+00 8.636614793016948e+00 8.609456714180070e+00 8.582221399826480e+00 8.554894040007660e+0011111
 8.527467811061840e+00 8.499947924147627e+00 8.472410354391030e+00 8.445000134367888e+00 8.417873484118008e+0011111
 8.391195472333619e+00 8.365139433169492e+00 8.339885397811456e+00 8.315617548045516e+00 8.292520866963530e+0011111
 8.270777322680601e+00 8.250562025276107e+00 8.232032163982803e+00 8.215282841721454e+00 8.200383988792012e+0011111
 8.187404001304548e+00 8.176409485300992e+00 8.167465499955059e+00 8.160635649295855e+00 8.155982129457374e+0011111
 8.153565774771600e+00 8.153446102528688e+00 8.155681356292639e+00 8.160328547705319e+00 8.167443496750034e+0011111
 8.177080870469808e+00 8.189294220156908e+00 8.204136017044302e+00 8.221657686538272e+00 8.241909641040236e+0011111
 8.264941311408945e+00 8.290801177117281e+00 8.319536795158854e+00 8.351194827760219e+00 8.385821068953073e+0011111
 8.423460470060110e+00 8.464157164146686e+00 8.507954491482296e+00 8.554895114424587e+00 8.605020886984354e+0011111
 8.658372881544510e+00 8.714991468137280e+00 8.774916332202768e+00 8.838186491847091e+00 8.904840314602493e+0011111
 8.974915533695045e+00 9.048449263825784e+00 9.125478016476180e+00 9.206037714746785e+00 9.290163707741314e+0011111
 9.377890784507965e+00 9.469253187550091e+00 9.564284625919919e+00 9.663018287907152e+00 9.765486853336512e+0011111
 9.871722505485760e+00 9.981756942638430e+00 1.009562138928249e+01 1.021334660696734e+01 1.033496290483192e+0111111
 1.046050014981425e+01 1.058998777655481e+01 1.072345479700330e+01 1.086092980974109e+01 1.100244100902767e+0111111
 1.114801619358214e+01 1.129768277510886e+01 1.145146778657601e+01 1.160939789025634e+01 1.177149938553825e+0111111
 1.193779821651530e+01 1.210831997936183e+01 1.228308992950265e+01 1.246213298858320e+01 1.264547375124794e+0111111
 1.283313649173268e+01 1.302514517027809e+01 1.322152343936980e+01 1.342229464981156e+01 1.362748185663625e+0111111
 1.383710782486120e+01 1.405119503509237e+01 1.426976568898194e+01 1.449284171454571e+01 1.472044477134255e+0111111
 1.495259625552309e+01 1.518931730474895e+01 1.543062880298955e+01 1.567655138519773e+01 1.592710544187019e+0111111
 1.618231112349481e+01 1.644218834488916e+01 1.670675678943393e+01 1.697603591320251e+01 1.725004494899316e+0111111
 1.752880291026367e+01 1.781232859497297e+01 1.061508228422357e+01 1.051384832854281e+01 1.042083868291005e+0111111
 1.033498458173614e+01 1.025539317770908e+01 1.018131248926829e+01 1.011210440743401e+01 1.004722367703695e+0111111
 9.986201362066364e+00 9.928631715212614e+00 9.874161659099835e+00 9.822482290799943e+00 9.773321968001023e+0011111
 9.726440642019393e+00 9.681625181436219e+00 9.638685488562494e+00 9.597451312720310e+00 9.557769650401397e+0011111
 9.519502052849939e+00 9.482522870786143e+00 9.446717610609046e+00 9.411981501200303e+00 9.378218259662937e+0011111
 9.345339024148446e+00 9.313261427988174e+00 9.281908794299909e+00 9.251209434358344e+00 9.221096036515082e+0011111
 9.191505135505645e+00 9.162376654735068e+00 9.133653516716890e+00 9.105281319363206e+00 9.077208078382736e+0011111
 9.049384038718573e+00 9.021761560801847e+00 8.994295090424210e+00 8.966941224183406e+00 8.939658885562540e+0011111
 8.912409629420383e+00 8.885158094397514e+00 8.857872622532350e+00 8.830526078549415e+00 8.803097146173441e+0011111
 8.775571035412032e+00 8.747940897663973e+00 8.720212019678907e+00 8.692460571987313e+00 8.664831919883763e+0011111
 8.637482766597735e+00 8.610578820356899e+00 8.584294206961339e+00 8.558809884978112e+00 8.534311070316024e+0011111
 8.510983846909410e+00 8.489011303095372e+00 8.468569639138709e+00 8.449816968618657e+00 8.432848623170761e+0011111
 8.417734445153567e+00 8.404542529431003e+00 8.393339413658781e+00 8.384190282951904e+00 8.377158659837566e+0011111
 8.372306638090052e+00 8.369694960268550e+00 8.369383060650812e+00 8.371429107046849e+00 8.375890041368086e+0011111
 8.382821618876065e+00 8.392278446067117e+00 8.404314017177684e+00 8.418980749314816e+00 8.436330016229345e+0011111
 8.456412180762069e+00 8.479276625999274e+00 8.504971785179741e+00 8.533545170398300e+00 8.565043400153494e+0011111
 8.599512225786789e+00 8.636996556861332e+00 8.677540485527684e+00 8.721187309922811e+00 8.767979556646560e+0011111
 8.817959002359958e+00 8.871166694545877e+00 8.927643018220822e+00 8.987427701768318e+00 9.050559710025338e+0011111
 9.117077358130700e+00 9.187018329911130e+00 9.260419693369215e+00 9.337317915730093e+00 9.417748878051356e+0011111
 9.501747889404793e+00 9.589349700638406e+00 9.680588517728049e+00 9.775498014729909e+00 9.874111346343472e+0011111
 9.976461160097205e+00 1.008257960816678e+01 1.019249835883871e+01 1.030624860762931e+01 1.042386108807024e+0111111
 1.054536608217260e+01 1.067079343057878e+01 1.080017254241406e+01 1.093353240484654e+01 1.107090159236727e+0111111
 1.121230827579850e+01 1.135778023104034e+01 1.150734484756485e+01 1.166102913666584e+01 1.181885973947328e+0111111
 1.198086293474033e+01 1.214706464641084e+01 1.231749045097456e+01 1.249216558461820e+01 1.267111495017829e+0111111
 1.285436312390351e+01 1.304193436203220e+01 1.323385260719199e+01 1.343014149462704e+01 1.363082435825903e+0111111
 1.383592423658692e+01 1.404546387843160e+01 1.425946574853003e+01 1.447795203298336e+01 1.470094464456538e+0111111
 1.492846522789350e+01 1.516053516446930e+01 1.539717557759015e+01 1.563840733713863e+01 1.588425106425119e+0111111
 1.613472713587185e+01 1.638985568919309e+01 1.664965662598822e+01 1.691414961683884e+01 1.718335410525873e+0111111
 1.745728931172047e+01 1.773597423758480e+01 1.801942766893709e+01 1.084203785387168e+01 1.074067171471446e+0111111
 1.064753229695983e+01 1.056155051660438e+01 1.048183324410933e+01 1.040762824525376e+01 1.033829718270543e+0111111
 1.027329459302095e+01 1.021215134855086e+01 1.015446152414707e+01 1.009987187603455e+01 1.004807334433751e+0111111
 9.998794137556063e+00 9.951794064122925e+00 9.906859854774757e+00 9.863801277905642e+00 9.822447893929180e+0011111
 9.782646327897272e+00 9.744257986381287e+00 9.707157298748250e+00 9.671229661525963e+00 9.636370125980774e+0011111
 9.602482232229644e+00 9.569476940960268e+00 9.537271706564910e+00 9.505789670854378e+00 9.474958960643137e+0011111
 9.444712076000799e+00 9.414985359025586e+00 9.385718535759398e+00 9.356854326459320e+00 9.328338121977740e+0011111
 9.300117726580050e+00 9.272143170224483e+00 9.244366596197954e+00 9.216742233056413e+00 9.189226463000319e+0011111
 9.161778001953161e+00 9.134358209354680e+00 9.106931547423919e+00 9.079466209429926e+00 9.051934932932687e+0011111
 9.024316005165060e+00 8.996594517964146e+00 8.968763973744277e+00 8.940829778329034e+00 8.912868277230601e+0011111
 8.885025145080068e+00 8.857457542015407e+00 8.830331786923313e+00 8.803822766356815e+00 8.778112334207400e+0011111
 8.753386708359290e+00 8.729833042550023e+00 8.707635516599119e+00 8.686971395561221e+00 8.667999697602946e+0011111
 8.650815977373467e+00 8.635490031543412e+00 8.622089908412612e+00 8.610682052970617e+00 8.601331369333620e+0011111
 8.594101319857153e+00 8.589054116339627e+00 8.586250428826810e+00 8.585749596991164e+00 8.587609703215316e+0011111
 8.591887611653940e+00 8.598639006233919e+00 8.607918427504801e+00 8.619779308287521e+00 8.634274008095538e+0011111
 8.651453846320866e+00 8.671369134194471e+00 8.694069205540181e+00 8.719602446349928e+00 8.748016323213520e+0011111
 8.779357410640596e+00 8.813671417314060e+00 8.851003211316058e+00 8.891396844368348e+00 8.934895575128541e+0011111
 8.981541891582513e+00 9.031377532574062e+00 9.084443508509597e+00 9.140780121275943e+00 9.200426983407423e+0011111
 9.263423036536365e+00 9.329806576043119e+00 9.399615341625404e+00 9.472886381333167e+00 9.549656114598585e+0011111
 9.629960377298339e+00 9.713834435692920e+00 9.801312999973476e+00 9.892430237422134e+00 9.987219785194267e+0011111
 1.008571476272973e+01 1.018794778380322e+01 1.029395096822160e+01 1.040375595317940e+01 1.051739390428084e+0111111
 1.063489552623859e+01 1.075629107325975e+01 1.088161035912750e+01 1.101088276698948e+01 1.114413725886063e+0111111
 1.128140238485177e+01 1.142270629213109e+01 1.156807673362854e+01 1.171754107649146e+01 1.187112631029927e+0111111
 1.202885905504613e+01 1.219076556889869e+01 1.235687175573694e+01 1.252720317248498e+01 1.270178503623956e+0111111
 1.288064223120226e+01 1.306379931542269e+01 1.325128052735836e+01 1.344310979225790e+01 1.363931072837311e+0111111
 1.383990665300582e+01 1.404492058839443e+01 1.425437526744619e+01 1.446829313931984e+01 1.468669637486287e+0111111
