 0950202   201     5   r   091314   091314   0                                 0
 1.848888791213640e+01 1.867390752010965e+01 1.888591464573400e+01 1.912572604452113e+01 1.939418462019327e+0111111
 1.969215955297316e+01 2.002054643731715e+01 2.038026742841900e+01 2.077227139686736e+01 2.119753409089121e+0111111
 2.165705830567302e+01 2.215187405925096e+01 2.268303877456940e+01 2.325163746727086e+01 2.385878293885452e+0111111
 2.450561597485362e+01 2.519330554771161e+01 2.592304902405932e+01 2.669590443899614e+01 2.751033166729806e+0111111
 2.836498210549515e+01 2.925903813429341e+01 3.019170680356606e+01 3.116221885016016e+01 3.216982776408875e+0111111
 3.321380890027814e+01 3.429345863322794e+01 3.540809355212113e+01 3.655704969408477e+01 3.773968181345067e+0111111
 3.895536268500873e+01 4.020348243937193e+01 4.148344792869482e+01 4.279468212109646e+01 4.413662352224414e+0111111
 4.550872562264875e+01 4.691045636931361e+01 4.834129766045901e+01 4.980074486212578e+01 5.128830634552985e+0111111
 5.280350304410793e+01 5.434586802925848e+01 5.591494610383816e+01 5.751029341253066e+01 5.913147706825323e+0111111
 6.077807479381735e+01 6.244967457810029e+01 6.414587434602997e+01 6.586628164671831e+01 6.761051336282833e+0111111
 6.937819537743044e+01 7.116896231193952e+01 7.298245725925659e+01 7.481833152393595e+01 7.667624437223664e+0111111
 7.855586279161182e+01 8.045686125921024e+01 8.237892151898919e+01 8.432173236705542e+01 8.628498944487416e+0111111
 8.826839504000083e+01 9.027165789401135e+01 9.229449301731984e+01 9.433662151058957e+01 9.639777039245820e+0111111
 9.847767243331145e+01 1.005760659948497e+02 1.026926948752117e+02 1.048273081594203e+02 1.069796600749371e+0211111
 1.091495098521158e+02 1.113366215893549e+02 1.135407641227652e+02 1.157617109001678e+02 1.179992398592532e+0211111
 1.202531333097366e+02 1.225231778193557e+02 1.248091641035574e+02 1.271108869187350e+02 1.294281449588779e+0211111
 1.317607407555028e+02 1.341084805807448e+02 1.364711743534876e+02 1.751189429055153e+01 1.775595469081118e+0111111
 1.798095092726399e+01 1.818778884503021e+01 1.837815619159838e+01 1.855444220082461e+01 1.872139537153580e+0111111
 1.890636500426215e+01 1.911832311284401e+01 1.935808642492762e+01 1.962649781777068e+01 1.992442644639857e+0111111
 2.025276788122256e+01 2.061244425444388e+01 2.100440441462499e+01 2.142962408885951e+01 2.188910605201944e+0111111
 2.238388030259944e+01 2.291500424471601e+01 2.348356287585415e+01 2.409066897998520e+01 2.473746332570821e+0111111
 2.542511486909333e+01 2.615482096092965e+01 2.692763962097968e+01 2.774203070916295e+01 2.859664560761127e+0111111
 2.949066668307016e+01 3.042330097187114e+01 3.139377919772086e+01 3.240135483787702e+01 3.344530323488039e+0111111
 3.452492075120070e+01 3.563952396433328e+01 3.678844890004728e+01 3.797105030163442e+01 3.918670093315111e+0111111
 4.043479091477284e+01 4.171472708850251e+01 4.302593241258376e+01 4.436784538307550e+01 4.573991948113848e+0111111
 4.714162264467580e+01 4.857243676304938e+01 5.003185719367583e+01 5.151939229937361e+01 5.303456300540162e+0111111
 5.457690237519341e+01 5.614595520384698e+01 5.774127762848730e+01 5.936243675466684e+01 6.100901029802027e+0111111
 6.268058624043044e+01 6.437676250000774e+01 6.609714661422127e+01 6.784135543555861e+01 6.960901483912471e+0111111
 7.139975944162146e+01 7.321323233118142e+01 7.504908481666473e+01 7.690697617741090e+01 7.878657339525503e+0111111
 8.068755094135130e+01 8.260959055384841e+01 8.455238102322230e+01 8.651561798547743e+01 8.849900372287108e+0111111
 9.050224697183685e+01 9.252506273779579e+01 9.456717211656127e+01 9.662830212205837e+01 9.870818552009219e+0111111
 1.008065606679090e+02 1.029231713593153e+02 1.050577666751190e+02 1.072101008386791e+02 1.093799330763554e+0211111
 1.115670274826571e+02 1.137711528899064e+02 1.159920827422326e+02 1.182295949737287e+02 1.204834718906023e+0211111
 1.227535000571712e+02 1.250394701855466e+02 1.273411770288678e+02 1.296584192779486e+02 1.319909994612066e+0211111
 1.343387238477518e+02 1.367014023535137e+02 1.773714736555365e+01 1.798366981189513e+01 1.821061973869081e+0111111
 1.841890498781482e+01 1.861022465291177e+01 1.878698769814320e+01 1.895399118097408e+01 1.913891136816422e+0111111
 1.935082098280261e+01 1.959053672412097e+01 1.985890144247007e+01 2.015678426732762e+01 2.048508074478844e+0111111
 2.084471298385799e+01 2.123662981092750e+01 2.166180693186031e+01 2.212124710116584e+01 2.261598029777968e+0111111
 2.314706390700607e+01 2.371558290821448e+01 2.432265006791283e+01 2.496940613784910e+01 2.565702005781911e+0111111
 2.638668916288215e+01 2.715947145758653e+01 2.797382678712675e+01 2.882840651937484e+01 2.972239300725968e+0111111
 3.065499327371917e+01 3.162543802947070e+01 3.263298073916978e+01 3.367689673312611e+01 3.475648236193446e+0111111
 3.587105419155739e+01 3.701994823656036e+01 3.820251922934817e+01 3.941813992339547e+01 4.066620042859023e+0111111
 4.194610757693160e+01 4.325728431693351e+01 4.459916913518971e+01 4.597121550365154e+01 4.737289135125984e+0111111
 4.880367855865337e+01 5.026307247475691e+01 5.175058145412090e+01 5.326572641395308e+01 5.480804040984562e+0111111
 5.637706822925859e+01 5.797236600187605e+01 5.959350082600051e+01 6.124005041020183e+01 6.291160272947759e+0111111
 6.460775569522696e+01 6.632811683837672e+01 6.807230300503595e+01 6.983994006409013e+01 7.163066262617589e+0111111
 7.344411377351035e+01 7.527994480007551e+01 7.713781496168443e+01 7.901739123548296e+01 8.091834808846168e+0111111
 8.284036725457710e+01 8.478313752676252e+01 8.674635455333240e+01 8.872972061206744e+01 9.073294443420261e+0111111
 9.275574102011461e+01 9.479783146072029e+01 9.685894276518982e+01 9.893880769470933e+01 1.010371646020365e+0211111
 1.031537572766145e+02 1.052883347950082e+02 1.074406513764492e+02 1.096104662432813e+02 1.117975434861048e+0211111
 1.140016519334361e+02 1.162225650256979e+02 1.184600606933726e+02 1.207139212391496e+02 1.229839332239173e+0211111
 1.252698873564438e+02 1.275715783866082e+02 1.298888050020443e+02 1.322213697280674e+02 1.345690788307599e+0211111
 1.369317422230966e+02 1.796248107685470e+01 1.821146696274276e+01 1.844037180726034e+01 1.865010544370015e+0111111
 1.884237831001150e+01 1.901961910213698e+01 1.918667344876011e+01 1.937154470061738e+01 1.958340632640640e+0111111
 1.982307499627712e+01 2.009139353312348e+01 2.038923104042687e+01 2.071748303960477e+01 2.107707161618146e+0111111
 2.146894557415695e+01 2.189408059800048e+01 2.235347942174368e+01 2.284817200468952e+01 2.337921571329226e+0111111
 2.394769550879878e+01 2.455472414027279e+01 2.520144234265274e+01 2.588901903952052e+01 2.661865155028213e+0111111
 2.739139786436152e+01 2.820571781232927e+01 2.906026274790791e+01 2.995421501032753e+01 3.088678160925635e+0111111
 3.185719324255118e+01 3.286470336239776e+01 3.390858728700981e+01 3.498814135524408e+01 3.610268212166854e+0111111
 3.725154558978358e+01 3.843408648124577e+01 3.964967753908620e+01 4.089770886304263e+01 4.217758727524668e+0111111
 4.348873571461721e+01 4.483059265841582e+01 4.620261156951553e+01 4.760426036802394e+01 4.903502092598350e+0111111
 5.049438858395160e+01 5.198187168833289e+01 5.349699114840350e+01 5.503928001203150e+01 5.660828305915362e+0111111
 5.820355641212510e+01 5.982466716210803e+01 6.147119301071446e+01 6.314272192616108e+01 6.483885181323780e+0111111
 6.655919019642849e+01 6.830335391556066e+01 7.007096883339480e+01 7.186166955459441e+01 7.367509915555092e+0111111
 7.551090892456364e+01 7.736875811190190e+01 7.924831368930262e+01 8.114925011847843e+01 8.307124912823507e+0111111
 8.501399949981578e+01 8.697719686011223e+01 8.896054348239704e+01 9.096374809425407e+01 9.298652569239491e+0111111
 9.502859736517672e+01 9.708969013322671e+01 9.916953675810088e+01 1.012678755880232e+02 1.033844504080326e+0211111
 1.055190102904130e+02 1.076713094502348e+02 1.098411071057947e+02 1.120281673437560e+02 1.142322589888038e+0211111
 1.164531554776320e+02 1.186906347370917e+02 1.209444790663358e+02 1.232144750228075e+02 1.255004133119173e+0211111
 1.278020886802719e+02 1.301192998123145e+02 1.324518492302487e+02 1.347995431971219e+02 1.371621916229473e+0211111
 1.818789382989399e+01 1.843934449901845e+01 1.867020544405450e+01 1.888138848453755e+01 1.907461540092157e+0111111
 1.925233462235456e+01 1.941944036100548e+01 1.960426316676853e+01 1.981607728940270e+01 2.005569936918709e+0111111
 2.032397220089776e+01 2.062176486146993e+01 2.094997284719000e+01 2.130951821973104e+01 2.170134976040404e+0111111
 2.212644313204929e+01 2.258580104803994e+01 2.308045344791275e+01 2.361145767917904e+01 2.417989868490519e+0111111
 2.478688919668302e+01 2.543356993263968e+01 2.612110980016370e+01 2.685070610304732e+01 2.762341681564589e+0111111
 2.843770175397557e+01 2.929221225769039e+01 3.018613065241240e+01 3.111866393463887e+01 3.208904278947138e+0111111
 3.309652065673656e+01 3.414037284266702e+01 3.521989567449976e+01 3.633440569552870e+01 3.748323889831160e+0111111
 3.866574999388021e+01 3.988131171494612e+01 4.112931415122102e+01 4.240916411509275e+01 4.372028453600829e+0111111
 4.506211388201930e+01 4.643410560704143e+01 4.783572762246865e+01 4.926646179186504e+01 5.072580344753688e+0111111
 5.221326092785732e+01 5.372835513428333e+01 5.527061910706919e+01 5.683959761873653e+01 5.843484678441784e+0111111
 6.005593368823867e+01 6.170243602495491e+01 6.337394175610182e+01 6.507004877995726e+01 6.679036461465714e+0111111
 6.853450609384025e+01 7.030209907423263e+01 7.209277815461309e+01 7.390618640563360e+01 7.574197510999502e+0111111
 7.759980351250493e+01 7.947933857957145e+01 8.138025476770717e+01 8.330223380064314e+01 8.524496445466944e+0111111
 8.720814235184277e+01 8.919146976071546e+01 9.119465540426262e+01 9.321741427469546e+01 9.525946745486772e+0111111
 9.732054194599547e+01 9.940037050142516e+01 1.014986914661939e+02 1.036152486221470e+02 1.057497910383771e+0211111
 1.079020729292906e+02 1.100718535234910e+02 1.122588969058004e+02 1.144629718970394e+02 1.166838519301416e+0211111
 1.189213149282989e+02 1.211751431871022e+02 1.234451232605261e+02 1.257310458506027e+02 1.280327057006471e+0211111
 1.303499014918947e+02 1.326824357434223e+02 1.350301147152285e+02 1.373927483143531e+02 1.841338393048746e+0111111
 1.866730085808122e+01 1.890011904333747e+01 1.911275246418181e+01 1.930693424436704e+01 1.948513254763691e+0111111
 1.965229018162458e+01 1.983706500810993e+01 2.004883209248951e+01 2.028840804425688e+01 2.055663562929470e+0111111
 2.085438389733743e+01 2.118254831899114e+01 2.154205093162003e+01 2.193384049346821e+01 2.235889264543839e+0111111
 2.281821007999711e+01 2.331282271671913e+01 2.384378788402269e+01 2.441219050668309e+01 2.501914329874397e+0111111
 2.566578696147463e+01 2.635329038604937e+01 2.708285086064789e+01 2.785552634457732e+01 2.866977663933599e+0111111
 2.952425307056008e+01 3.041813795032613e+01 3.135063826203295e+01 3.232098467810793e+01 3.332843062610661e+0111111
 3.437225140037437e+01 3.545174331662700e+01 3.656622290698678e+01 3.771502615317416e+01 3.889750775570367e+0111111
 4.011304043707660e+01 4.136101427708881e+01 4.264083607849530e+01 4.395192876138218e+01 4.529373078470206e+0111111
 4.666569559352362e+01 4.806729109063683e+01 4.949799913123609e+01 5.095731503948407e+01 5.244474714582863e+0111111
 5.395981634401229e+01 5.550205566677865e+01 5.707100987933572e+01 5.866623508969292e+01 6.028729837503720e+0111111
 6.193377742336430e+01 6.360526018962226e+01 6.530134456566904e+01 6.702163806338297e+01 6.876575751030245e+0111111
 7.053332875720548e+01 7.232398639707071e+01 7.413737349489321e+01 7.597314132785604e+01 7.783094913538386e+0111111
 7.971046387863281e+01 8.161136000899064e+01 8.353331924518692e+01 8.547603035863010e+01 8.743918896661155e+0111111
 8.942249733303146e+01 9.142566417632244e+01 9.344840448426005e+01 9.549043933536603e+01 9.755149572662526e+0111111
 9.963130640725095e+01 1.017296097182422e+02 1.038461494374993e+02 1.059806746302593e+02 1.081329395046421e+0211111
 1.103027032720942e+02 1.124897300125321e+02 1.146937885440004e+02 1.169146522966599e+02 1.191520991909384e+0211111
 1.214059115203743e+02 1.236758758472289e+02 1.259617828741030e+02 1.282634273409941e+02 1.305806079259064e+0211111
 1.329131271447681e+02 1.352607912545091e+02 1.376234101591783e+02 1.863894946944518e+01 1.889533418074616e+0111111
 1.913011102270480e+01 1.934419581849114e+01 1.953933323977399e+01 1.971801124611746e+01 1.988522125233450e+0111111
 2.006994854247921e+01 2.028166903131555e+01 2.052119929650756e+01 2.078938207415093e+01 2.108708638601699e+0111111
 2.141520767638369e+01 2.177466795775836e+01 2.216641596485754e+01 2.259142731626185e+01 2.305070468321318e+0111111
 2.354527796506435e+01 2.407620447093126e+01 2.464456910713305e+01 2.525148457003860e+01 2.589809154396644e+0111111
 2.658555890381278e+01 2.731508392210645e+01 2.808772454308985e+01 2.890194055374613e+01 2.975638326571268e+0111111
 3.065023497755367e+01 3.158270265961484e+01 3.255301697170504e+01 3.356043132917325e+01 3.460422101454953e+0111111
 3.568368233210664e+01 3.679813180287859e+01 3.794690539783608e+01 3.912935780706746e+01 4.034486174295744e+0111111
 4.159280727548190e+01 4.287260119786028e+01 4.418366642091628e+01 4.552544139460245e+01 4.689737955523982e+0111111
 4.829894879711364e+01 4.972963096714750e+01 5.118892138145889e+01 5.267632836266791e+01 5.419137279689930e+0111111
 5.573358770948155e+01 5.730251785840338e+01 5.889771934464418e+01 6.051875923854385e+01 6.216521522142815e+0111111
 6.383667524174637e+01 6.553273718502365e+01 6.725300855696604e+01 6.899710617909520e+01 7.076465589632319e+0111111
 7.255529229590879e+01 7.436865843726883e+01 7.620440559214551e+01 7.806219299465587e+01 7.994168760077770e+0111111
 8.184256385684586e+01 8.376450347665872e+01 8.570719522681181e+01 8.767033471989832e+01 8.965362421523173e+0111111
 9.165677242676624e+01 9.367949433790415e+01 9.572151102289612e+01 9.778254947455540e+01 9.986234243801998e+0111111
 1.019606282503077e+02 1.040771506854287e+02 1.062116588048188e+02 1.083639068128829e+02 1.105336539174364e+0211111
 1.127206641948463e+02 1.149247064596873e+02 1.171455541387275e+02 1.193829851490775e+02 1.216367817803329e+0211111
 1.239067305805627e+02 1.261926222459834e+02 1.284942515141871e+02 1.308114170607794e+02 1.331439213993010e+0211111
 1.354915707843089e+02 1.378541751198637e+02 1.886458897506302e+01 1.912344273895069e+01 1.936017943803765e+0111111
 1.957571686679669e+01 1.977181086112050e+01 1.995096916522201e+01 2.011823199265515e+01 2.030291216405936e+0111111
 2.051458647648025e+01 2.075407147457519e+01 2.102220986363791e+01 2.131987063660330e+01 2.164794921067167e+0111111
 2.200736757285254e+01 2.239907443378881e+01 2.282404538927614e+01 2.328328308894168e+01 2.377781741159012e+0111111
 2.430870564676462e+01 2.487703268210683e+01 2.548391119613240e+01 2.613048185606804e+01 2.681791352042379e+0111111
 2.754740344599800e+01 2.832000956191393e+01 2.913419164060688e+01 2.998860097970175e+01 3.088241986425314e+0111111
 3.181485525157083e+01 3.278513778887451e+01 3.379252087934666e+01 3.483627979375123e+01 3.591571082497487e+0111111
 3.703013048302685e+01 3.817887472819727e+01 3.936129824022208e+01 4.057677372144697e+01 4.182469123210859e+0111111
 4.310445755597411e+01 4.441549559468993e+01 4.575724378929527e+01 4.712915556745119e+01 4.853069881502657e+0111111
 4.996135537076297e+01 5.142062054282142e+01 5.290800264608290e+01 5.442302255914256e+01 5.596521330000137e+0111111
 5.753411961951564e+01 5.912929761172069e+01 6.075031434019436e+01 6.239674747967626e+01 6.406818497219970e+0111111
 6.576422469703834e+01 6.748447415380612e+01 6.922855015808670e+01 7.099607854900360e+01 7.278669390817159e+0111111
 7.460003928950383e+01 7.643576595937466e+01 7.829353314666513e+01 8.017300780224471e+01 8.207386436746403e+0111111
 8.399578455125747e+01 8.593845711547337e+01 8.790157766807101e+01 8.988484846384002e+01 9.188797821231762e+0111111
 9.391068189259292e+01 9.595268057470429e+01 9.801370124735053e+01 1.000934766516505e+02 1.021917451206956e+0211111
 1.043082504246591e+02 1.064427416212278e+02 1.085949729111426e+02 1.107647034986374e+02 1.129516974565785e+0211111
 1.151557235961179e+02 1.173765553406775e+02 1.196139706040953e+02 1.218677516727673e+02 1.241376850916322e+0211111
 1.264235615538452e+02 1.287251757940035e+02 1.310423264847825e+02 1.333748161368560e+02 1.357224510019754e+0211111
 1.380850409790879e+02 1.909030102287256e+01 1.935162509390287e+01 1.959032273702675e+01 1.980731373006279e+0111111
 2.000436526034088e+01 2.018400474874310e+01 2.035132089990911e+01 2.053595434337878e+01 2.074758287353375e+0111111
 2.098702300071091e+01 2.125511739826204e+01 2.155273502929804e+01 2.188077128308762e+01 2.224014812040567e+0111111
 2.263181422718748e+01 2.305674517590010e+01 2.351594359409163e+01 2.401043933962404e+01 2.454128968213442e+0111111
 2.510957949030745e+01 2.571642142457338e+01 2.636295613487657e+01 2.705035246318678e+01 2.777980765044997e+0111111
 2.855237961057643e+01 2.936652810138440e+01 3.022090440643873e+01 3.111469079725580e+01 3.204709421809719e+0111111
 3.301734530359568e+01 3.402469744478191e+01 3.506842590067924e+01 3.614782695282317e+01 3.726221710024122e+0111111
 3.841093229259276e+01 3.959332719931716e+01 4.080877451278199e+01 4.205666428354967e+01 4.333640328600362e+0111111
 4.464741441268445e+01 4.598913609579174e+01 4.736102175440223e+01 4.876253926604544e+01 5.019317046135895e+0111111
 5.165241064062612e+01 5.313976811106801e+01 5.465476374382949e+01 5.619693054966335e+01 5.776581327237247e+0111111
 5.936096799912673e+01 6.098196178681993e+01 6.262837230368287e+01 6.429978748540933e+01 6.599580520509717e+0111111
 6.771603295634276e+01 6.946008754886543e+01 7.122759481607247e+01 7.301818933400611e+01 7.483151415114588e+0111111
 7.666722052856719e+01 7.852496768998267e+01 8.040442258121999e+01 8.230525963871060e+01 8.422716056658882e+0111111
 8.616981412201828e+01 8.813291590838574e+01 9.011616817601698e+01 9.211927963009104e+01 9.414196524544138e+0111111
 9.618394608795026e+01 9.824494914225720e+01 1.003247071455158e+02 1.024229584269434e+02 1.045394467529282e+0211111
 1.066739211774582e+02 1.088261358976593e+02 1.109958501142322e+02 1.131828278965894e+02 1.153868380525060e+0211111
 1.176076540021025e+02 1.198450536559885e+02 1.220988192974025e+02 1.243687374681953e+02 1.266545988585014e+0211111
 1.289561981999629e+02 1.312733341623641e+02 1.336058092535498e+02 1.359534297225030e+02 1.383160054654618e+0211111
 1.931608421653439e+01 1.957987983464711e+01 1.982053949763814e+01 2.003898496323601e+01 2.023699477008440e+0111111
 2.041711609496384e+01 2.058448629410461e+01 2.076907360244898e+01 2.098065674297690e+01 2.122005237078083e+0111111
 2.148810315086455e+01 2.178567801540992e+01 2.211367232479260e+01 2.247300801271744e+01 2.286463373968769e+0111111
 2.328952505421498e+01 2.374868456122759e+01 2.424314209717971e+01 2.477395491140413e+01 2.534220785328912e+0111111
 2.594901356489208e+01 2.659551267863323e+01 2.728287401974071e+01 2.801229481314225e+01 2.878483295740062e+0111111
 2.959894819561012e+01 3.045329179719296e+01 3.134704602006604e+01 3.227941779540025e+01 3.324963774521547e+0111111
 3.425695924837893e+01 3.530065755217444e+01 3.638002892679840e+01 3.749438986031822e+01 3.864307629179261e+0111111
 3.982544288040152e+01 4.104086230857779e+01 4.228872461725835e+01 4.356843657149616e+01 4.487942105478313e+0111111
 4.622111649053956e+01 4.759297628932083e+01 4.899446832038235e+01 5.042507440632468e+01 5.188428983962182e+0111111
 5.337162291990427e+01 5.488659451093677e+01 5.642873761629448e+01 5.799759697279774e+01 5.959272866082182e+0111111
 6.121369973064726e+01 6.286008784406651e+01 6.453148093050389e+01 6.622747685695091e+01 6.794768311105526e+0111111
 6.969171649674000e+01 7.145920284176361e+01 7.324977671666211e+01 7.506308116454694e+01 7.689876744125914e+0111111
 7.875649476540647e+01 8.063593007783727e+01 8.253674781012528e+01 8.445862966166501e+01 8.640126438499478e+0111111
 8.836434757898687e+01 9.034758148956031e+01 9.235067481759189e+01 9.437334253371421e+01 9.641530569970723e+0111111
 9.847629129620375e+01 1.005560320564436e+02 1.026542663058207e+02 1.047707378069874e+02 1.069051956102813e+0211111
 1.090573939092607e+02 1.112270919011392e+02 1.134140536519207e+02 1.156180479660480e+02 1.178388482603832e+0211111
 1.200762324423498e+02 1.223299827920705e+02 1.245998858483483e+02 1.268857322983367e+02 1.291873168707615e+0211111
 1.315044382325534e+02 1.338368988887654e+02 1.361845050856483e+02 1.385470667167660e+02 1.954193718783807e+0111111
 1.980820557806415e+01 2.005082832533069e+01 2.027072916379928e+01 2.046969798320046e+01 2.065030171903618e+0111111
 2.081772639557788e+01 2.100226810513412e+01 2.121380653169564e+01 2.145315815119975e+01 2.172116566662152e+0111111
 2.201869811735469e+01 2.234665083687619e+01 2.270594573088414e+01 2.309753143363226e+01 2.352238346896442e+0111111
 2.398150441856962e+01 2.447592409695667e+01 2.500669973268896e+01 2.557491615545727e+01 2.618168598860153e+0111111
 2.682814984672340e+01 2.751547653805913e+01 2.824486327130711e+01 2.901736792950614e+01 2.983145024088076e+0111111
 3.068576146059167e+01 3.157948383286138e+01 3.251182427569636e+01 3.348201339844837e+01 3.448930456778250e+0111111
 3.553297301921870e+01 3.661231501160268e+01 3.772664702204135e+01 3.887530497900202e+01 4.005764353142315e+0111111
 4.127303535182816e+01 4.252087047156033e+01 4.380055564637954e+01 4.511151375077122e+01 4.645318319942282e+0111111
 4.782501739441830e+01 4.922648419679177e+01 5.065706542116222e+01 5.211625635225172e+01 5.360356528215939e+0111111
 5.511851306733031e+01 5.666063270422354e+01 5.822946892273914e+01 5.982457779652069e+01 6.144552636929855e+0111111
 6.309189229649013e+01 6.476326350131356e+01 6.645923784471712e+01 6.817942280846263e+01 6.992343519073933e+0111111
 7.169090081371874e+01 7.348145424249205e+01 7.529473851486327e+01 7.713040488149903e+01 7.898811255596146e+0111111
 8.086752847417790e+01 8.276832706292194e+01 8.469019001690501e+01 8.663280608409576e+01 8.859587085890692e+0111111
 9.057908658290465e+01 9.258216195271640e+01 9.460481193482593e+01 9.664675758696187e+01 9.870772588580044e+0111111
 1.007874495607168e+02 1.028856669333294e+02 1.050021217626023e+02 1.071365630952686e+02 1.092887451213643e+0211111
 1.114584270346605e+02 1.136453728977958e+02 1.158493515119232e+02 1.180701362906881e+02 1.203075051383687e+0211111
 1.225612403320117e+02 1.248311284074114e+02 1.271169600487787e+02 1.294185299819599e+02 1.317356368710693e+0211111
 1.340680832184036e+02 1.364156752675162e+02 1.387782229093314e+02 1.976785859670222e+01 2.003660096887107e+0111111
 2.028118785305613e+01 2.050254495633876e+01 2.070247351921124e+01 2.088356023856723e+01 2.105103981891772e+0111111
 2.123553631125798e+01 2.144703042346737e+01 2.168633860822267e+01 2.195430347699362e+01 2.225179392865510e+0111111
 2.257970539035648e+01 2.293895982479863e+01 2.333050583907267e+01 2.375531893155449e+01 2.421440165999329e+0111111
 2.470878381634044e+01 2.523952260785599e+01 2.580770284406853e+01 2.641443712919732e+01 2.706086605967658e+0111111
 2.774815842645011e+01 2.847751142172927e+01 2.924998291280909e+01 3.006403261285828e+01 3.091831176261993e+0111111
 3.181200259249250e+01 3.274431200721188e+01 3.371447060337645e+01 3.472173173538229e+01 3.576537062693500e+0111111
 3.684468352549352e+01 3.795898689718096e+01 3.910761665986124e+01 4.028992745222916e+01 4.150529193690535e+0111111
 4.275310013565369e+01 4.403275879496196e+01 4.534369078033596e+01 4.668533449776211e+01 4.805714334088927e+0111111
 4.945858516257046e+01 5.088914176948639e+01 5.234830843865342e+01 5.383559345468775e+01 5.535051766676528e+0111111
 5.689261406428108e+01 5.846142737026831e+01 6.005651365169327e+01 6.167743994579144e+01 6.332378390166099e+0111111
 6.499513343637004e+01 6.669108640488014e+01 6.841125028312369e+01 7.015524186361253e+01 7.192268696298757e+0111111
 7.371322014095111e+01 7.552648443005540e+01 7.736213107584780e+01 7.921981928689944e+01 8.109921599427079e+0111111
 8.299999561998875e+01 8.492183985413440e+01 8.686443744015889e+01 8.882748396806667e+01 9.081068167512163e+0111111
 9.281373925375168e+01 9.483637166634074e+01 9.687829996661431e+01 9.893925112733933e+01 1.010189578740728e+0211111
 1.031171585247036e+02 1.052335968345519e+02 1.073680218467908e+02 1.095201877479770e+02 1.116898537284814e+0211111
 1.138767838476189e+02 1.160807469032932e+02 1.183015163059733e+02 1.205388699568310e+02 1.227925901298750e+0211111
 1.250624633579290e+02 1.273482803222974e+02 1.296498357459838e+02 1.319669282903206e+02 1.342993604548829e+0211111
 1.366469384805608e+02 1.390094722556718e+02 1.999384713117441e+01 2.026506467962127e+01 2.051161674125906e+0111111
 2.073443099254381e+01 2.093532002431168e+01 2.111689029737133e+01 2.128442520835296e+01 2.146887686631763e+0111111
 2.168032703442930e+01 2.191959214254344e+01 2.218751477992840e+01 2.248496382341197e+01 2.281283457490612e+0111111
 2.317204891315041e+01 2.356355555376913e+01 2.398833002005361e+01 2.444737484502969e+01 2.494171979740248e+0111111
 2.547242206252405e+01 2.604056642923076e+01 2.664726548215753e+01 2.729365979916640e+01 2.798091815355633e+0111111
 2.871023772074585e+01 2.948267635202193e+01 3.029669374526996e+01 3.115094112662073e+01 3.204460071248322e+0111111
 3.297687939418323e+01 3.394700775544935e+01 3.495423913831283e+01 3.599784875458734e+01 3.707713284028373e+0111111
 3.819140785049437e+01 3.934000969244562e+01 4.052229299456586e+01 4.173763040956014e+01 4.298541194960904e+0111111
 4.426504435193218e+01 4.557595047306651e+01 4.691756871031440e+01 4.828935244891181e+01 4.969076953355749e+0111111
 5.112130176302481e+01 5.258044440665886e+01 5.406770574163035e+01 5.558260660988608e+01 5.712467999379938e+0111111
 5.869347060958071e+01 6.028853451756476e+01 6.190943874853910e+01 6.355576094533073e+01 6.522708901890664e+0111111
 6.692302081829105e+01 6.864316381363695e+01 7.038713479182900e+01 7.215455956402782e+01 7.394507268459728e+0111111
 7.575831718088817e+01 7.759394429337877e+01 7.945161322569916e+01 8.133099090409246e+01 8.323175174588806e+0111111
 8.515357743658548e+01 8.709615671516650e+01 8.905918516727507e+01 9.104236502591985e+01 9.304540497937575e+0111111
 9.506801998597264e+01 9.710993109547812e+01 9.917086527679436e+01 1.012505552517040e+02 1.033487393344095e+0211111
 1.054651612766295e+02 1.075995701180186e+02 1.097517200416955e+02 1.119213702346709e+02 1.141082847529755e+0211111
 1.163122323913028e+02 1.185329865569829e+02 1.207703251481188e+02 1.230240304357181e+02 1.252938889496694e+0211111
 1.275796913684060e+02 1.298812324121231e+02 1.321983107394055e+02 1.345307288471397e+02 1.368782929735848e+0211111
 1.392408130044834e+02-1.989783743545241e-01-2.050283670737594e-01-2.104489592438084e-01-2.151081640990225e-0111111
-2.188802759268542e-01-2.216453155711696e-01-2.232885255616818e-01-2.236999099460168e-01-2.227738144390440e-0111111
-2.204085429779209e-01-2.165060071891460e-01-2.109714056430749e-01-2.037129300977609e-01-1.946414962232438e-0111111
-1.836704965539312e-01-1.707155736446047e-01-1.556944116083446e-01-1.385265443951192e-01-1.191331793308743e-0111111
-9.743703458065511e-02-7.336218932781685e-02-4.683394557647932e-02-1.777870058729369e-02 1.387617095076590e-0211111
 4.820233514776050e-02 8.526515191134697e-02 1.251166573682196e-01 1.677999998771294e-01 2.133510163865243e-0111111
 2.617984662343391e-01 3.131649934788530e-01 3.674673083154917e-01 4.247169346256326e-01 4.849206858270951e-0111111
 5.480808711845209e-01 6.141958646972194e-01 6.832603661246115e-01 7.552658178473350e-01 8.302006008738408e-0111111
 9.080503893674861e-01 9.887984547805673e-01 1.072425752577807e+00 1.158911212590397e+00 1.248232023776733e+0011111
 1.340363704078378e+00 1.435280250126955e+00 1.532954493441131e+00 1.633357991470398e+00 1.736461294206378e+0011111
 1.842234124670752e+00 1.950645347637093e+00 2.061663147054132e+00 2.175255118403509e+00 2.291388402307186e+0011111
 2.410029691589813e+00 2.531145280064707e+00 2.654701279278617e+00 2.780663541262958e+00 2.908997791588139e+0011111
 3.039669552743043e+00 3.172644446124526e+00 3.307887990499782e+00 3.445365737268106e+00 3.585043280476129e+0011111
 3.726886435738368e+00 3.870861041973602e+00 4.016933184229645e+00 4.165068997408875e+00 4.315234933175166e+0011111
 4.467397733864198e+00 4.621524239455970e+00 4.777581657804799e+00 4.935537457908360e+00 5.095359432377424e+0011111
 5.257015635033017e+00 5.420474445703665e+00 5.585704594176677e+00 5.752675143302772e+00 5.921355515271157e+0011111
 6.091715435015637e+00 6.263725084823740e+00 6.437354923988287e+00 6.612575761652657e+00 6.789358788756408e+0011111
 6.967675695102240e+00 7.147498325377994e+00 7.328799092457322e+00 7.511550635542684e+00 7.695726109518647e+0011111
-1.649774929490875e-01-1.712286827607971e-01-1.768460617721227e-01-1.816973829940266e-01-1.856567181389841e-0111111
-1.886039062746661e-01-1.904240522773694e-01-1.910071752824972e-01-1.902478275530326e-01-1.880445245579452e-0111111
-1.842993778085005e-01-1.789177748951304e-01-1.718080864519918e-01-1.628813975458789e-01-1.520512612421226e-0111111
-1.392334723274964e-01-1.243458593724731e-01-1.073080934952285e-01-8.804151235053374e-02-6.646895801005445e-0211111
-4.251462752882085e-02-1.610393510747825e-02 1.283661513738361e-02 4.437954669008459e-02 7.859642857322251e-0211111
 1.155525280759294e-01 1.552997929231633e-01 1.978812870533355e-01 2.433327667560393e-01 2.916829142662427e-0111111
 3.429542999027945e-01 3.971635633051415e-01 4.543221608134188e-01 5.144368411607714e-01 5.775098516353550e-0111111
 6.435395068288967e-01 7.125204495668843e-01 7.844440676285646e-01 8.592986895657706e-01 9.370699391756439e-0111111
 1.017741039532740e+00 1.101292899615931e+00 1.187704404571409e+00 1.276952700387564e+00 1.369013263669925e+0011111
 1.463860051271559e+00 1.561465856417800e+00 1.661802199681736e+00 1.764839595530940e+00 1.870547732754298e+0011111
 1.978895443126020e+00 2.089850878774141e+00 2.203381604486387e+00 2.319454731268407e+00 2.438036923359500e+0011111
 2.559094446974348e+00 2.682593387005775e+00 2.808499569736105e+00 2.936778695853603e+00 3.067396263795943e+0011111
 3.200317871705472e+00 3.335509015859016e+00 3.472935225898650e+00 3.612562074817440e+00 3.754355357851900e+0011111
 3.898280894191609e+00 4.044304749778481e+00 4.192393041007977e+00 4.342512201612845e+00 4.494628956551313e+0011111
 4.648710128958476e+00 4.804722910356139e+00 4.962634753902599e+00 5.122413436843985e+00 5.284026998093840e+0011111
 5.447443803013551e+00 5.612632567347559e+00 5.779562340312600e+00 5.948202530858073e+00 6.118522851058061e+0011111
 6.290493470706959e+00 6.464084836958125e+00 6.639267747156767e+00 6.816013380773690e+00 6.994293416460891e+0011111
 7.174079688062642e+00 7.355344597905696e+00 7.538060774932245e+00 7.722201364043577e+00-8.293131461457945e-0211111
-8.957326860363568e-02-9.557373121252287e-02-1.007998909412646e-01-1.051253252275373e-01-1.084294563336322e-0111111
-1.105970574080919e-01-1.115181159669990e-01-1.110875322774932e-01-1.092041843000328e-01-1.057705274788106e-0111111
-1.006922759335218e-01-9.387811049484476e-02-8.523941108725473e-02-7.469001121810738e-02-6.214597255874284e-0211111
-4.752537780516254e-02-3.074814018542030e-02-1.173582814118819e-02 9.588496146039002e-03 3.330042558573959e-0211111
 5.947434545325998e-02 8.818356009350187e-02 1.195004099459084e-01 1.534962890215547e-01 1.902362972004016e-0111111
 2.297722219967335e-01 2.721469739581268e-01 3.173961624479206e-01 3.655483289058987e-01 4.166259086735113e-0111111
 4.706454119361305e-01 5.276181708262099e-01 5.875508148550107e-01 6.504454768292425e-01 7.163003614136902e-0111111
 7.851100064511831e-01 8.568656983021269e-01 9.315556677851825e-01 1.009165444678520e+00 1.089678161577684e+0011111
 1.173074640358460e+00 1.259333682284834e+00 1.348432352537260e+00 1.440346049848874e+00 1.535048656004595e+0011111
 1.632512891841488e+00 1.732710208106422e+00 1.835611051891107e+00 1.941185046952987e+00 2.049400962278741e+0011111
 2.160226889357381e+00 2.273630334395503e+00 2.389578351789452e+00 2.508037551059228e+00 2.628974145512421e+0011111
 2.752354168872980e+00 2.878143397922142e+00 3.006307485447832e+00 3.136811883524287e+00 3.269622145406491e+0011111
 3.404703723901998e+00 3.542022106546434e+00 3.681542825536506e+00 3.823231636572161e+00 3.967054320518183e+0011111
 4.112976906157620e+00 4.260965473849206e+00 4.410986422369263e+00 4.563006442759901e+00 4.716992325242183e+0011111
 4.872911229389389e+00 5.030730577341823e+00 5.190418116224674e+00 5.351941855695539e+00 5.515270132694171e+0011111
 5.680371635348284e+00 5.847215386034630e+00 6.015770767612362e+00 6.186007466789167e+00 6.357895628692081e+0011111
 6.531405676482313e+00 6.706508384165287e+00 6.883174908502462e+00 7.061376906045857e+00 7.241086189128923e+0011111
 7.422275139137322e+00 7.604916364623218e+00 7.788982990630999e+00 2.948635015861578e-02 2.240441821570041e-0211111
 1.597188516497175e-02 1.032224328951803e-02 5.582519915098144e-03 1.873812441143291e-03-6.882272744425932e-0411111
-1.993501992466618e-03-1.937260745904668e-03-4.187502375624375e-04 2.659223147006812e-03 7.390611103806954e-0311111
 1.386641440278302e-02 2.217494959897667e-02 3.240209369834229e-02 4.463150878776548e-02 5.894484843743947e-0211111
 7.542194750453929e-02 9.414099680714910e-02 1.151787039947022e-01 1.386104418135649e-01 1.645103848521073e-0111111
 1.929516357474221e-01 2.240063417438690e-01 2.577457117321114e-01 2.942346681347268e-01 3.335248282845972e-0111111
 3.756589394597460e-01 4.206724543230446e-01 4.685937638600658e-01 5.194451589000875e-01 5.732430107715176e-0111111
 6.299985181344734e-01 6.897181821571272e-01 7.524040121911899e-01 8.180540940614867e-01 8.866628505273345e-0111111
 9.582214576115444e-01 1.032718040104796e+00 1.110138025618468e+00 1.190464448270582e+00 1.273678034985711e+0011111
 1.359757495448423e+00 1.448679806484960e+00 1.540420281560351e+00 1.634952720145444e+00 1.732249763591844e+0011111
 1.832282785870395e+00 1.935022159892940e+00 2.040437437725516e+00 2.148497319049399e+00 2.259169828336713e+0011111
 2.372422406972885e+00 2.488222046640434e+00 2.606535296168698e+00 2.727328310117553e+00 2.850567065899433e+0011111
 2.976217286115185e+00 3.104244570149135e+00 3.234614318320721e+00 3.367292033729112e+00 3.502243120563973e+0011111
 3.639433019222662e+00 3.778827216187582e+00 3.920391422815150e+00 4.064091376946591e+00 4.209893065612774e+0011111
 4.357762528645198e+00 4.507666125473449e+00 4.659570508930888e+00 4.813442432127115e+00 4.969249018582270e+0011111
 5.126957655404516e+00 5.286536055672143e+00 5.447952195946826e+00 5.611174380990511e+00 5.776171267639729e+0011111
 5.942911847836450e+00 6.111365474832450e+00 6.281501806527627e+00 6.453290960014089e+00 6.626703331165335e+0011111
 6.801709667421655e+00 6.978281099678269e+00 7.156389259297111e+00 7.336005934075817e+00 7.517103481497484e+0011111
 7.699654486824726e+00 7.883632052405946e+00 1.628545516730791e-01 1.553303883351314e-01 1.484630552639984e-0111111
 1.423867580715176e-01 1.372291633767932e-01 1.331119240850211e-01 1.301511534998701e-01 1.284570669449887e-0111111
 1.281340936959355e-01 1.292826429186444e-01 1.319995800055044e-01 1.363785434499907e-01 1.425102350074647e-0111111
 1.504826856284657e-01 1.603814993963965e-01 1.722900774755011e-01 1.862898238739509e-01 2.024603346479195e-0111111
 2.208795720127913e-01 2.416240246851754e-01 2.647688556519783e-01 2.903880384486859e-01 3.185544829269891e-0111111
 3.493401514000671e-01 3.828160752924611e-01 4.190470066590297e-01 4.580843992177084e-01 4.999708430583711e-0111111
 5.447416397749472e-01 5.924250351128899e-01 6.430431802159107e-01 6.966123120222270e-01 7.531434998521185e-0111111
 8.126431203525192e-01 8.751130629532036e-01 9.405512984983377e-01 1.008952141628084e+00 1.080306661269650e+0011111
 1.154602878418636e+00 1.231826120605257e+00 1.311959325414463e+00 1.394983126628996e+00 1.480876144034381e+0011111
 1.569615267660018e+00 1.661175727143066e+00 1.755531240969156e+00 1.852654372227492e+00 1.952516419235575e+0011111
 2.055087681752935e+00 2.160337641091671e+00 2.268234928479905e+00 2.378747502144566e+00 2.491842739345525e+0011111
 2.607487569675286e+00 2.725648481828622e+00 2.846291572109978e+00 2.969382760913010e+00 3.094887715219211e+0011111
 3.222771981411557e+00 3.353000908424566e+00 3.485539949515046e+00 3.620354460515796e+00 3.757409834898247e+0011111
 3.896671513597626e+00 4.038105163752002e+00 4.181676480265284e+00 4.327351408466310e+00 4.475095947676010e+0011111
 4.624876417962894e+00 4.776659433908512e+00 4.930411711441365e+00 5.086100337934235e+00 5.243692665346220e+0011111
 5.403156372570812e+00 5.564459402916524e+00 5.727570028792443e+00 5.892456875552459e+00 6.059088904497234e+0011111
 6.227435439050808e+00 6.397466108072252e+00 6.569151000374125e+00 6.742460484287015e+00 6.917365280421234e+0011111
 7.093836493532177e+00 7.271845729510170e+00 7.451364751328367e+00 7.632365892272185e+00 7.814821714013817e+0011111
 7.998705295899667e+00 3.115530450174231e-01 3.036012909036439e-01 2.963131862062038e-01 2.898236464190982e-0111111
 2.842609780533597e-01 2.797473940816495e-01 2.763994776770409e-01 2.743275810747149e-01 2.736358423985150e-0111111
 2.744243563167170e-01 2.767896877330553e-01 2.808251879191015e-01 2.866212839771344e-01 2.942657441169847e-0111111
 3.038439209760949e-01 3.154389749862095e-01 3.291320795891938e-01 3.450026099256906e-01 3.631283164607403e-0111111
 3.835854848681451e-01 4.064490833680680e-01 4.317928985983666e-01 4.596896609982672e-01 4.902111605912480e-0111111
 5.234282632927325e-01 5.594055621058304e-01 5.981943590676367e-01 6.398371030647100e-01 6.843689547831715e-0111111
 7.318180236734824e-01 7.822063297464263e-01 8.355499837225899e-01 8.918599333878088e-01 9.511424383192393e-0111111
 1.013399275135618e+00 1.078628305385014e+00 1.146823735626254e+00 1.217976533398435e+00 1.292074622384966e+0011111
 1.369103236144028e+00 1.449045221488982e+00 1.531881124498551e+00 1.617589480195380e+00 1.706147096666790e+0011111
 1.797529124314085e+00 1.891709204984133e+00 1.988659827620487e+00 2.088352218789006e+00 2.190756608797095e+0011111
 2.295842411714127e+00 2.403578193648919e+00 2.513931849750464e+00 2.626870696163728e+00 2.742361603254535e+0011111
 2.860371002307749e+00 2.980864933966385e+00 3.103809264645883e+00 3.229169608970329e+00 3.356911462526417e+0011111
 3.487000124956404e+00 3.619401001674214e+00 3.754079402066827e+00 3.891000674506844e+00 4.030130216129667e+0011111
 4.171433651526591e+00 4.314876634263751e+00 4.460425069498998e+00 4.608044917508573e+00 4.757702460403767e+0011111
 4.909364275859137e+00 5.062997043910666e+00 5.218567817018792e+00 5.376043913177494e+00 5.535392978230741e+0011111
 5.696582923322737e+00 5.859581989554270e+00 6.024358771798890e+00 6.190882201677899e+00 6.359121573711033e+0011111
 6.529046488603166e+00 6.700627007738774e+00 6.873833472723392e+00 7.048636578123101e+00 7.225007403308480e+0011111
 7.402917529423882e+00 7.582338695315484e+00 7.763243210741630e+00 7.945603614428931e+00 8.129392963341967e+0011111
 4.719581237678471e-01 4.635993425982138e-01 4.559104272547125e-01 4.490269801819457e-01 4.430779298521776e-0111111
 4.381860365787090e-01 4.344683460645818e-01 4.320353578614921e-01 4.309909616991743e-01 4.314349664979913e-0111111
 4.334636610704519e-01 4.371701332868017e-01 4.426445587474589e-01 4.499744653371761e-01 4.592449758824316e-0111111
 4.705390309088159e-01 4.839375932951691e-01 4.995198364432184e-01 5.173633174225118e-01 5.375441364086745e-0111111
 5.601370836061694e-01 5.852157747331745e-01 6.128527760446126e-01 6.431197197779548e-01 6.760873201453844e-0111111
 7.118200242337659e-01 7.503689924543819e-01 7.917765327022090e-01 8.360776749695793e-01 8.833004035042107e-0111111
 9.334666175935799e-01 9.865923115241055e-01 1.042688320755288e+00 1.101760796473027e+00 1.163811410675269e+0011111
 1.228837923902883e+00 1.296834445171565e+00 1.367791847798826e+00 1.441697964432153e+00 1.518537940649899e+0011111
 1.598294538218124e+00 1.680948220982911e+00 1.766477444436469e+00 1.854858939730583e+00 1.946067782823498e+0011111
 2.040077543513729e+00 2.136860640997812e+00 2.236388234306768e+00 2.338630488340159e+00 2.443556753805115e+0011111
 2.551135535416033e+00 2.661334668820933e+00 2.774121412486167e+00 2.889462580853286e+00 3.007324550972175e+0011111
 3.127673310877907e+00 3.250474675945441e+00 3.375694211268803e+00 3.503297364360423e+00 3.633249388191781e+0011111
 3.765515642859392e+00 3.900061393738162e+00 4.036851946447920e+00 4.175852656586460e+00 4.317029108380312e+0011111
 4.460346916163086e+00 4.605771946953404e+00 4.753270123944181e+00 4.902807693183422e+00 5.054351197267978e+0011111
 5.207867282108625e+00 5.363322966961319e+00 5.520685537505749e+00 5.679922608132446e+00 5.841002059364824e+0011111
 6.003892102488416e+00 6.168561303340976e+00 6.334978565262387e+00 6.503113155221214e+00 6.672934647078188e+0011111
 6.844413076058321e+00 7.017518758270847e+00 7.192222363427986e+00 7.368494946668953e+00 7.546308065509997e+0011111
 7.725633435753942e+00 7.906443344682672e+00 8.088710309096031e+00 8.272407364564934e+00 6.415960682007001e-0111111
 6.328520310237529e-01 6.247835381214287e-01 6.175268542266266e-01 6.112115106601911e-01 6.059608014840984e-0111111
 6.018922268584153e-01 5.991164383120497e-01 5.977370751976978e-01 5.978536874705115e-01 5.995623189800873e-0111111
 6.029558223252365e-01 6.081241471255707e-01 6.151546041857963e-01 6.241321077752598e-01 6.351393980202114e-0111111
 6.482572452059829e-01 6.635646376080467e-01 6.811389543118109e-01 7.010561243390890e-01 7.233907732722507e-0111111
 7.482163584533923e-01 7.756052937342502e-01 8.056290646611013e-01 8.383582442178442e-01 8.738571434882838e-0111111
 9.121767918791508e-01 9.533593710631876e-01 9.974397893867117e-01 1.044445913831202e+00 1.094399530610457e+0011111
 1.147316524951367e+00 1.203207627098052e+00 1.262078886703176e+00 1.323931877759226e+00 1.388764266182264e+0011111
 1.456570069603629e+00 1.527340073063279e+00 1.601062023910555e+00 1.677720985283610e+00 1.757299639250429e+0011111
 1.839778372590684e+00 1.925135566256475e+00 2.013347881216228e+00 2.104390327162069e+00 2.198236406013409e+0011111
 2.294858471209791e+00 2.394227618156744e+00 2.496313950171303e+00 2.601086758337129e+00 2.708514489624624e+0011111
 2.818564923741783e+00 2.931205264947161e+00 3.046402275138594e+00 3.164122280421499e+00 3.284331219424059e+0011111
 3.406994859593186e+00 3.532078719517752e+00 3.659548201574599e+00 3.789368514918315e+00 3.921504977098680e+0011111
 4.055922812167693e+00 4.192587285601825e+00 4.331463713992778e+00 4.472517643657801e+00 4.615714652079361e+0011111
 4.761020570446050e+00 4.908401287106442e+00 5.057823014215938e+00 5.209252261398013e+00 5.362655642478132e+0011111
 5.518000145485122e+00 5.675253025701057e+00 5.834381867920877e+00 5.995354523848017e+00 6.158139176698315e+0011111
 6.322704364965752e+00 6.489018965348984e+00 6.657052218855405e+00 6.826773674043023e+00 6.998153341471792e+0011111
 7.171161513203552e+00 7.345768835501565e+00 7.521946340635996e+00 7.699665563816127e+00 7.878898199082728e+0011111
 8.059616512484006e+00 8.241793000098557e+00 8.425400677273130e+00 8.187024699259717e-01 8.095944168123794e-0111111
 8.011671286223119e-01 7.935575065086795e-01 7.868956607743671e-01 7.813053981089609e-01 7.769046555068887e-0111111
 7.738042362202335e-01 7.721075622960846e-01 7.719139438551200e-01 7.733191946583572e-01 7.764159465434024e-0111111
 7.812939372895378e-01 7.880402743887143e-01 7.967396769457792e-01 8.074746977058691e-01 8.203259270063730e-0111111
 8.353721802724544e-01 8.526906705158553e-01 8.723571671546668e-01 8.944461434544959e-01 9.190309202193314e-0111111
 9.461837718931342e-01 9.759760473323984e-01 1.008478188193606e+00 1.043754379313333e+00 1.081855528669197e+0011111
 1.122823701079096e+00 1.166693692381451e+00 1.213493261184544e+00 1.263244089265158e+00 1.315961961163398e+0011111
 1.371657510012403e+00 1.430336691765818e+00 1.492000989974962e+00 1.556647983227475e+00 1.624271604802204e+0011111
 1.694862558233427e+00 1.768408512089628e+00 1.844894453337564e+00 1.924302990374086e+00 2.006614438704539e+0011111
 2.091807110305408e+00 2.179857597444152e+00 2.270740841641768e+00 2.364430282531026e+00 2.460898213246929e+0011111
 2.560115670703684e+00 2.662052701476657e+00 2.766678541596278e+00 2.873961584609221e+00 2.983869558372510e+0011111
 3.096369616811881e+00 3.211428472957943e+00 3.329012405463909e+00 3.449087306872119e+00 3.571618899863181e+0011111
 3.696572659534160e+00 3.823913946001244e+00 3.953607927347827e+00 4.085619881201837e+00 4.219914992804155e+0011111
 4.356458489893737e+00 4.495215652362617e+00 4.636151990831843e+00 4.779233048058032e+00 4.924424621442421e+0011111
 5.071692566454052e+00 5.221003063247091e+00 5.372322590293646e+00 5.525617731090307e+00 5.680855444133155e+0011111
 5.838002955942258e+00 5.997027823296825e+00 6.157897870607281e+00 6.320581254496451e+00 6.485046487543437e+0011111
 6.651262421189047e+00 6.819198271819535e+00 6.988823563988872e+00 7.160108284851179e+00 7.333022703642447e+0011111
 7.507537444362475e+00 7.683623517563405e+00 7.861252437265571e+00 8.040395876834069e+00 8.221026082139467e+0011111
 8.403115529566056e+00 8.586637215235390e+00 1.001975670172155e+00 9.925237841569416e-01 9.837574668270994e-0111111
 9.758142169161910e-01 9.688246919299359e-01 9.629131863861523e-01 9.581980562052869e-01 9.547902558240288e-0111111
 9.527930102565377e-01 9.523054117500501e-01 9.534230656531488e-01 9.562384042689702e-01 9.608409741909993e-0111111
 9.673176995916289e-01 9.757531236809512e-01 9.862296303287861e-01 9.988276476431459e-01 1.013625835120547e+0011111
 1.030701255824819e+00 1.050129534909461e+00 1.071985005671945e+00 1.096340844214928e+00 1.123269193687931e+0011111
 1.152841278991761e+00 1.185127422067047e+00 1.220191692126255e+00 1.258084885469179e+00 1.298848959039825e+0011111
 1.342518604467794e+00 1.389121479682486e+00 1.438679169180564e+00 1.491207363493674e+00 1.546716604895184e+0011111
 1.605212761508876e+00 1.666697231971502e+00 1.731167512760956e+00 1.798617457744775e+00 1.869037693641988e+0011111
 1.942415814703444e+00 2.018736735981252e+00 2.097982996269698e+00 2.180134843696354e+00 2.265170525000921e+0011111
 2.353066569274633e+00 2.443797856845648e+00 2.537337768063253e+00 2.633658538617306e+00 2.732731149747087e+0011111
 2.834525594057935e+00 2.939011055252501e+00 3.046155876131842e+00 3.155927735331910e+00 3.268293739026650e+0011111
 3.383220553911155e+00 3.500674413668564e+00 3.620621167230365e+00 3.743026497736027e+00 3.867855840732331e+0011111
 3.995074516228179e+00 4.124647653367132e+00 4.256540491961196e+00 4.390718180517744e+00 4.527145911085059e+0011111
 4.665788928869581e+00 4.806612710775788e+00 4.949582766778322e+00 5.094664862398125e+00 5.241824822094165e+0011111
 5.391028795850644e+00 5.542243232781007e+00 5.695434687806899e+00 5.850570091606737e+00 6.007616643614881e+0011111
 6.166541874232510e+00 6.327313582176387e+00 6.489899899037714e+00 6.654269313004534e+00 6.820390651746572e+0011111
 6.988233108479174e+00 7.157766185166567e+00 7.328959846936004e+00 7.501784341541903e+00 7.676210272030878e+0011111
 7.852208628514001e+00 8.029750905066980e+00 8.208808755591656e+00 8.389354406962193e+00 8.571360317019320e+0011111
 8.754799463780399e+00 1.190426308625114e+00 1.180649009313627e+00 1.171561728236599e+00 1.163302546627535e+0011111
 1.156002653380463e+00 1.149786815195689e+00 1.144773792388932e+00 1.141074687989980e+00 1.138792543779912e+0011111
 1.138026247485476e+00 1.138871207723192e+00 1.141419667596308e+00 1.145760991767490e+00 1.151981929481315e+0011111
 1.160166855757084e+00 1.170397992747316e+00 1.182755617707947e+00 1.197318254798062e+00 1.214162822408668e+0011111
 1.233364805970188e+00 1.254998404907171e+00 1.279136666949982e+00 1.305851612056525e+00 1.335214346823009e+0011111
