 0909502   201     5   r   110110   110110   0                                 0
 7.948524982070861e+00 8.129334890999591e+00 8.311601855412951e+00 8.495298910881854e+00 8.644876145176191e-0111111
 8.557435773406719e-01 8.476750844383477e-01 8.404184005435454e-01 8.341030569771101e-01 8.288523478010174e-0111111
 8.247837731753342e-01 8.220079846289687e-01 8.206286215146168e-01 8.207452337874305e-01 8.224538652970063e-0111111
 8.258473686421555e-01 8.310156934424897e-01 8.380461505027152e-01 8.470236540921788e-01 8.580309443371303e-0111111
 8.711487915229020e-01 8.864561839249657e-01 9.040305006287299e-01 9.239476706560080e-01 9.462823195891696e-0111111
 9.711079047703113e-01 9.984968400511692e-01 1.028520610978020e+00 1.061249790534763e+00 1.096748689805203e+0011111
 1.135068338196070e+00 1.176250917380107e+00 1.220331335703631e+00 1.267337460148121e+00 1.317291076927376e+0011111
 1.370208071268286e+00 1.426099173414970e+00 1.484970433020095e+00 1.546823424076144e+00 1.611655812499183e+0011111
 1.679461615920548e+00 1.750231619380198e+00 1.823953570227474e+00 1.900612531600529e+00 1.980191185567348e+0011111
 2.062669918907603e+00 2.148027112573394e+00 2.236239427533147e+00 2.327281873478988e+00 2.421127952330328e+0011111
 2.517750017526710e+00 2.617119164473663e+00 2.719205496488222e+00 2.823978304654047e+00 2.931406035941543e+0011111
 3.041456470058702e+00 3.154096811264080e+00 3.269293821455513e+00 3.387013826738418e+00 3.507222765740979e+0011111
 3.629886405910105e+00 3.754970265834671e+00 3.882439747891518e+00 4.012260061235234e+00 4.144396523415599e+0011111
 4.278814358484612e+00 4.415478831918744e+00 4.554355260309697e+00 4.695409189974720e+00 4.838606198396280e+0011111
 4.983912116762968e+00 5.131292833423362e+00 5.280714560532857e+00 5.432143807714932e+00 5.585547188795052e+0011111
 5.740891691802041e+00 5.898144572017976e+00 6.057273414237796e+00 6.218246070164937e+00 6.381030723015233e+0011111
 6.545595911282671e+00 6.711910511665904e+00 6.879943765172324e+00 7.049665220359942e+00 7.221044887788711e+0011111
 7.394053059520471e+00 7.568660381818485e+00 7.744837886952915e+00 7.922557110133046e+00 8.101789745399648e+0011111
 8.282508058800925e+00 8.464684546415475e+00 8.648292223590049e+00 1.041594016242891e+00 1.032485963129298e+0011111
 1.024058674939231e+00 1.016449052825598e+00 1.009787207091286e+00 1.004196944425880e+00 9.997962018238077e-0111111
 9.966957825371525e-01 9.949991086130036e-01 9.948054901720390e-01 9.962107409752762e-01 9.993074928603214e-0111111
 1.004185483606457e+00 1.010931820705633e+00 1.019631223262698e+00 1.030366244022788e+00 1.043217473323292e+0011111
 1.058263726589373e+00 1.075582216832774e+00 1.095248713471586e+00 1.117337689771415e+00 1.141922466536250e+0011111
 1.169075318210053e+00 1.198867593649317e+00 1.231369734510525e+00 1.266645925630252e+00 1.304747074986116e+0011111
 1.345715247396015e+00 1.389585238698370e+00 1.436384807501463e+00 1.486135635582077e+00 1.538853507480316e+0011111
 1.594549056329322e+00 1.653228238082737e+00 1.714892536291881e+00 1.779539529544394e+00 1.847163151119123e+0011111
 1.917754104550346e+00 1.991300058406547e+00 2.067785999654483e+00 2.147194536691005e+00 2.229505985021458e+0011111
 2.314698656622327e+00 2.402749143761071e+00 2.493632387958687e+00 2.587321828847945e+00 2.683789759563848e+0011111
 2.783007217020603e+00 2.884944247793576e+00 2.989570087913196e+00 3.096853130926140e+00 3.206761104689429e+0011111
 3.319261163128799e+00 3.434320019274862e+00 3.551903951780828e+00 3.671978853189038e+00 3.794510446180100e+0011111
 3.919464205851079e+00 4.046805492318163e+00 4.176499473664746e+00 4.308511427518756e+00 4.442806539121075e+0011111
 4.579350036210656e+00 4.718107198679536e+00 4.859043537148763e+00 5.002124594374951e+00 5.147316167759339e+0011111
 5.294584112770972e+00 5.443894609564010e+00 5.595214136610566e+00 5.748509277407226e+00 5.903746990450074e+0011111
 6.060894502259177e+00 6.219919369613744e+00 6.380789416924200e+00 6.543472800813370e+00 6.707938033860357e+0011111
 6.874153967505967e+00 7.042089818136454e+00 7.211715110305790e+00 7.382999831168099e+00 7.555914249959366e+0011111
 7.730428990679394e+00 7.906515063880325e+00 8.084143983582491e+00 8.263287423150988e+00 8.443917628456386e+0011111
 8.626007075882974e+00 8.809528761552308e+00 1.224867216489074e+00 1.215415330473861e+00 1.206649013144018e+0011111
 1.198705763233110e+00 1.191716238246855e+00 1.185804732703071e+00 1.181089602522206e+00 1.177681802140948e+0011111
 1.175684556573457e+00 1.175196958066969e+00 1.176314611970068e+00 1.179129950585889e+00 1.183732520507918e+0011111
 1.190209245908548e+00 1.198644669997870e+00 1.209121176645705e+00 1.221719193960065e+00 1.236517381437466e+0011111
 1.253592802141738e+00 1.273021081226380e+00 1.294876551988864e+00 1.319232390531847e+00 1.346160740004850e+0011111
 1.375732825308680e+00 1.408018968383966e+00 1.443083238443174e+00 1.480976431786098e+00 1.521740505356744e+0011111
 1.565410150784713e+00 1.612013025999405e+00 1.661570715497483e+00 1.714098909810593e+00 1.769608151212103e+0011111
 1.828104307825795e+00 1.889588778288421e+00 1.954059059077875e+00 2.021509004061694e+00 2.091929239958907e+0011111
 2.165307361020363e+00 2.241628282298171e+00 2.320874542586617e+00 2.403026390013274e+00 2.488062071317840e+0011111
 2.575958115591551e+00 2.666689403162567e+00 2.760229314380172e+00 2.856550084934225e+00 2.955622696064006e+0011111
 3.057417140374854e+00 3.161902601569420e+00 3.269047422448761e+00 3.378819281648830e+00 3.491185285343568e+0011111
 3.606112100228074e+00 3.723565959985484e+00 3.843512713547284e+00 3.965918044052946e+00 4.090747387049250e+0011111
 4.217966062545099e+00 4.347539199684051e+00 4.479432038278115e+00 4.613609726834664e+00 4.750037457401978e+0011111
 4.888680475186501e+00 5.029504257092707e+00 5.172474313095242e+00 5.317556408715044e+00 5.464716368411084e+0011111
 5.613920342167563e+00 5.765134779097926e+00 5.918326234123819e+00 6.073461637923655e+00 6.230508189931800e+0011111
 6.389433420549429e+00 6.550205128493307e+00 6.712791445354632e+00 6.877160859321453e+00 7.043282198063491e+0011111
 7.211124654796093e+00 7.380657731483486e+00 7.551851393252924e+00 7.724675887858822e+00 7.899101818347797e+0011111
 8.075100174830920e+00 8.252642451383899e+00 8.431700301908576e+00 8.612245953279112e+00 8.794251863336237e+0011111
 8.977691010097317e+00 1.413317854942033e+00 1.403540555630546e+00 1.394453274553518e+00 1.386194092944454e+0011111
 1.378894199697382e+00 1.372678361512608e+00 1.367665338705851e+00 1.363966234306899e+00 1.361684090096831e+0011111
 1.360917793802394e+00 1.361762754040111e+00 1.364311213913227e+00 1.368652538084409e+00 1.374873475798234e+0011111
 1.383058402074003e+00 1.393289539064235e+00 1.405647164024866e+00 1.420209801114981e+00 1.437054368725587e+0011111
 1.456256352287107e+00 1.477889951224090e+00 1.502028213266901e+00 1.528743158373444e+00 1.558105893139928e+0011111
 1.590186625819175e+00 1.625049316303393e+00 1.662744655709232e+00 1.703314499721141e+00 1.746793442434496e+0011111
 1.793209047785344e+00 1.842582809645923e+00 1.894930331131805e+00 1.950262070158437e+00 2.008583813409086e+0011111
 2.069896880865336e+00 2.134198693011145e+00 2.201483030264547e+00 2.271740448329455e+00 2.344958472772155e+0011111
 2.421121952192680e+00 2.500213361073007e+00 2.582212885280386e+00 2.667098711263030e+00 2.754847309710653e+0011111
 2.845433504365014e+00 2.938830620732999e+00 3.035010841338468e+00 3.133945095866783e+00 3.235603326920201e+0011111
 3.339954669690783e+00 3.446967419905860e+00 3.556609210511458e+00 3.668847103324741e+00 3.783647721968807e+0011111
 3.900977258293341e+00 4.020801520548194e+00 4.143086149543460e+00 4.267796540842330e+00 4.394897977281962e+0011111
 4.524355551843135e+00 4.656134469152352e+00 4.790199843478119e+00 4.926516833546813e+00 5.065050652131249e+0011111
 5.205766744562797e+00 5.348630590076684e+00 5.493607924262191e+00 5.640664542429304e+00 5.789766566171689e+0011111
 5.940880416947288e+00 6.093972622734643e+00 6.249010087959609e+00 6.405959986473401e+00 6.564789823743055e+0011111
 6.725467374180482e+00 6.887960745682262e+00 7.052238403333658e+00 7.218269152275649e+00 7.386022163751706e+0011111
 7.555466918294446e+00 7.726573360123725e+00 7.899311716595284e+00 8.073652570850797e+00 8.249566893575647e+0011111
 8.427026159885116e+00 8.606002005172353e+00 8.786466638241476e+00 8.968392499289184e+00 9.151752549102600e+0011111
 1.606177766118383e+00 1.596092185147162e+00 1.586700762425526e+00 1.578142122941152e+00 1.570547955246808e+0011111
 1.564043473314551e+00 1.558747823557403e+00 1.554772254813498e+00 1.552219641309949e+00 1.551188683897159e+0011111
 1.551774612257942e+00 1.554069498011420e+00 1.558162541340214e+00 1.564140333608528e+00 1.572087098186277e+0011111
 1.582084911470102e+00 1.594213905892454e+00 1.608552456532327e+00 1.625177352782520e+00 1.644163956386901e+0011111
 1.665586347034526e+00 1.689517456584184e+00 1.716029192891592e+00 1.745192554120265e+00 1.777077643656281e+0011111
 1.811748319985198e+00 1.849255176170094e+00 1.889639973087676e+00 1.932937213164647e+00 1.979174371701822e+0011111
 2.028372856865584e+00 2.080548188892949e+00 2.135710745548272e+00 2.193866235993860e+00 2.255015905225753e+0011111
 2.319157101185857e+00 2.386283534104540e+00 2.456385691766202e+00 2.529451034002443e+00 2.605464345782979e+0011111
 2.684408043115401e+00 2.766262257461001e+00 2.851005116912620e+00 2.938613035636120e+00 3.029060782717552e+0011111
 3.122321630793682e+00 3.218367711226101e+00 3.317169904172504e+00 3.418698104272964e+00 3.522921400257556e+0011111
 3.629808042830119e+00 3.739325621293273e+00 3.851441155145554e+00 3.966121226963769e+00 4.083331988773901e+0011111
 4.203039210177440e+00 4.325208494466569e+00 4.449805200774321e+00 4.576794576554817e+00 4.706141680414214e+0011111
 4.837811683575945e+00 4.971769667841810e+00 5.107980760374300e+00 5.246410143253113e+00 5.387023231956674e+0011111
 5.529785476678166e+00 5.674662584747757e+00 5.821620323972469e+00 5.970624789173525e+00 6.121642375742396e+0011111
 6.274639586273597e+00 6.429583300468849e+00 6.586440668093499e+00 6.745179171146218e+00 6.905766561168146e+0011111
 7.068170923763541e+00 7.232360702285431e+00 7.398304680684978e+00 7.565972009541279e+00 7.735332149231690e+0011111
 7.906355024314218e+00 8.079010842961047e+00 8.253270169594037e+00 8.429103956628492e+00 8.606483661345850e+0011111
 8.785380901728647e+00 8.965767869581093e+00 9.147616988498594e+00 9.330901203053944e+00 1.802837312662479e+0011111
 1.792458971171803e+00 1.782778663188469e+00 1.773935542277147e+00 1.766061779990308e+00 1.759283020426679e+0011111
 1.753718779489692e+00 1.749480445186250e+00 1.746670731533237e+00 1.745388159614690e+00 1.745727786058751e+0011111
 1.747781515957329e+00 1.751638389293988e+00 1.757384844209516e+00 1.765104973865989e+00 1.774880718981531e+0011111
 1.786792075091237e+00 1.800917286234043e+00 1.817333016249056e+00 1.836114506476196e+00 1.857335721043851e+0011111
 1.881069480813542e+00 1.907387586950760e+00 1.936360935000355e+00 1.968059529584389e+00 2.002547134078739e+0011111
 2.039874249905685e+00 2.080082549597911e+00 2.123206450374814e+00 2.169273345317415e+00 2.218304563220490e+0011111
 2.270315547667257e+00 2.325316602363880e+00 2.383313364895324e+00 2.444307011053249e+00 2.508294821846502e+0011111
 2.575270442747870e+00 2.645224298869135e+00 2.718143789368659e+00 2.794013640461293e+00 2.872816208112196e+0011111
 2.954531563392575e+00 3.039137781534197e+00 3.126611225454915e+00 3.216926614440019e+00 3.310057172731715e+0011111
 3.405974984662659e+00 3.504650884687238e+00 3.606054723028529e+00 3.710155545247356e+00 3.816921560088301e+0011111
 3.926320316067824e+00 4.038318793035390e+00 4.152883535020727e+00 4.269980656570588e+00 4.389575890841842e+0011111
 4.511634805684393e+00 4.636122725760004e+00 4.763004864992126e+00 4.892246249367373e+00 5.023812018372194e+0011111
 5.157667222926300e+00 5.293776960138197e+00 5.432106382835778e+00 5.572620878022754e+00 5.715285868170425e+0011111
 5.860067033616441e+00 6.006930115881987e+00 6.155841184187199e+00 6.306766608986015e+00 6.459672868578486e+0011111
 6.614526818995149e+00 6.771295586934316e+00 6.929946631913296e+00 7.090447683559687e+00 7.252766806114777e+0011111
 7.416872422102526e+00 7.582733296638629e+00 7.750318562013431e+00 7.919597659102317e+00 8.090540493453346e+0011111
 8.263117254705978e+00 8.437298489211184e+00 8.613055131760413e+00 8.790358622444108e+00 8.969180562473046e+0011111
 9.149493127285821e+00 9.331268724505799e+00 9.514480283115210e+00 2.002806554853822e+00 1.992149747616160e+0011111
 1.982194575986249e+00 1.973080697353528e+00 1.964940747171230e+00 1.957900785859551e+00 1.952080689969375e+0011111
 1.947591990122000e+00 1.944537258347487e+00 1.943014855250236e+00 1.943119683275041e+00 1.944943499278427e+0011111
 1.948575200639559e+00 1.954101087379227e+00 1.961605102502592e+00 1.971169052556788e+00 1.982872810194649e+0011111
 1.996794500357985e+00 2.013010671535069e+00 2.031596453405436e+00 2.052625702058426e+00 2.076171133858561e+0011111
 2.102304448929440e+00 2.131096445136649e+00 2.162617032689303e+00 2.196929883717940e+00 2.234085411467122e+0011111
 2.274125203259152e+00 2.317083593970502e+00 2.362987897107906e+00 2.411859364563178e+00 2.463713366282486e+0011111
 2.518560143520641e+00 2.576405267090169e+00 2.637249845420630e+00 2.701091094542647e+00 2.767922597218268e+0011111
 2.837734718007448e+00 2.910514797574204e+00 2.986247505601600e+00 3.064915143396629e+00 3.146497729162459e+0011111
 3.230973286974510e+00 3.318318130232152e+00 3.408506930270507e+00 3.501512864884318e+00 3.597307973399525e+0011111
 3.695863046645969e+00 3.797147892548906e+00 3.901131515645560e+00 4.007782084881316e+00 4.117067110150577e+0011111
 4.228953533812989e+00 4.343407863498016e+00 4.460396178401068e+00 4.579884177337922e+00 4.701837394790786e+0011111
 4.826221122991969e+00 4.953000544340178e+00 5.082140654169969e+00 5.213606562157827e+00 5.347363290226344e+0011111
 5.483375907271782e+00 5.621609538667886e+00 5.762029544696688e+00 5.904601321815719e+00 6.049290525033225e+0011111
 6.196062871202797e+00 6.344884405517121e+00 6.495721475022060e+00 6.648540535209011e+00 6.803308419880114e+0011111
 6.959992234067132e+00 7.118559416164966e+00 7.278977675205939e+00 7.441215055346815e+00 7.605239959522040e+0011111
 7.771021132261842e+00 7.938527685691877e+00 8.107729042674467e+00 8.278595091162924e+00 8.451096003607987e+0011111
 8.625202309567184e+00 8.800884927423356e+00 8.978115281232991e+00 9.156864956537653e+00 9.337106113461829e+0011111
 9.518811144660509e+00 9.701952964484160e+00 2.205682378035499e+00 2.194760228969582e+00 2.184543111485593e+0011111
 2.175171204047002e+00 2.166777576724386e+00 2.159488673919205e+00 2.153424705427193e+00 2.148697329454605e+0011111
 2.145408976150827e+00 2.143657848096340e+00 2.143538696962071e+00 2.145143135550168e+00 2.148559923433771e+0011111
 2.153875228655706e+00 2.161172867694651e+00 2.170534525683855e+00 2.182039958668595e+00 2.195767179511557e+0011111
 2.211792628897157e+00 2.230191332744846e+00 2.251037047215229e+00 2.274402392379823e+00 2.300358975524261e+0011111
 2.328977504963774e+00 2.360327804489173e+00 2.394473462799800e+00 2.431464812560771e+00 2.471343363239974e+0011111
 2.514143374465634e+00 2.559892086990657e+00 2.608610682342235e+00 2.660314461701854e+00 2.715013591052788e+0011111
 2.772713574756409e+00 2.833415459707738e+00 2.897116402180600e+00 2.963809926915792e+00 3.033486342144064e+0011111
 3.106132933847896e+00 3.181734318631631e+00 3.260272746281318e+00 3.341728184992025e+00 3.426078610299280e+0011111
 3.513300288486620e+00 3.603367845153875e+00 3.696254413698281e+00 3.791931990344120e+00 3.890371324074430e+0011111
 3.991542182182481e+00 4.095413529749306e+00 4.201953497401928e+00 4.311129557817303e+00 4.422908617202701e+0011111
 4.537257148065524e+00 4.654141195475729e+00 4.773526425087633e+00 4.895378339433473e+00 5.019662203619529e+0011111
 5.146343170858318e+00 5.275386206723569e+00 5.406756391985263e+00 5.540418720481543e+00 5.676338233815587e+0011111
 5.814480030830226e+00 5.954809446010939e+00 6.097291850726572e+00 6.241892875579286e+00 6.388578213675082e+0011111
 6.537313887094542e+00 6.688066220384918e+00 6.840801647131480e+00 6.995486979802620e+00 7.152089302649505e+0011111
 7.310576033821179e+00 7.470914862621199e+00 7.633073813977764e+00 7.797021272080736e+00 7.962725963184195e+0011111
 8.130156981591171e+00 8.299283732780546e+00 8.470076087747625e+00 8.642504202397344e+00 8.816538590140926e+0011111
 8.992150153602182e+00 9.169310301454084e+00 9.347990604218875e+00 9.528163207355032e+00 9.709800489194340e+0011111
 9.892875350096773e+00 2.411132519372263e+00 2.399956917812294e+00 2.389489616682940e+00 2.379871208273177e+0011111
 2.371235186240062e+00 2.363708379042882e+00 2.357411326749172e+00 2.352455816856546e+00 2.348944147653284e+0011111
 2.346974371609504e+00 2.346641095076248e+00 2.348035790370912e+00 2.351247081411258e+00 2.356361011131498e+0011111
 2.363461304143439e+00 2.372629528329522e+00 2.383945322054062e+00 2.397486585782829e+00 2.413329652720987e+0011111
 2.431549445896795e+00 2.452219622870226e+00 2.475412709133375e+00 2.501200221169056e+00 2.529652780043448e+0011111
 2.560840125648502e+00 2.594825765948403e+00 2.631659955865467e+00 2.671384129959334e+00 2.714032475638800e+0011111
 2.759632163991276e+00 2.808204309307235e+00 2.859764147843839e+00 2.914321782864002e+00 2.971882658111435e+0011111
 3.032447761871484e+00 3.096014193727513e+00 3.162575423565742e+00 3.232121706519862e+00 3.304640277159020e+0011111
 3.380115702288363e+00 3.458530183443149e+00 3.539863642053917e+00 3.624094008319083e+00 3.711197504556723e+0011111
 3.801148713719946e+00 3.893920727827734e+00 3.989485502946810e+00 4.087813749077871e+00 4.188875195663764e+0011111
 4.292638771025741e+00 4.399072570082309e+00 4.508144030815597e+00 4.619820025715836e+00 4.734066994516860e+0011111
 4.850850950425722e+00 4.970137528113082e+00 5.091892199697619e+00 5.216080196770347e+00 5.342666642753766e+0011111
 5.471616475616305e+00 5.602894749225420e+00 5.736466431200780e+00 5.872296537592708e+00 6.010350142338712e+0011111
 6.150592555648728e+00 6.292989125228475e+00 6.437505458612412e+00 6.584107226417647e+00 6.732760428798489e+0011111
 6.883431368922724e+00 7.036086459527558e+00 7.190692492749726e+00 7.347216533010533e+00 7.505625979116763e+0011111
 7.665888501503495e+00 7.827972106690811e+00 7.991845160907773e+00 8.157476372882316e+00 8.324834819813670e+0011111
 8.493889890487333e+00 8.664611439604048e+00 8.836969607161777e+00 9.010934891041446e+00 9.186478178702666e+0011111
 9.363570864010054e+00 9.542184503023389e+00 9.722291227074933e+00 9.903863400697155e+00 1.008687391076854e+0111111
 2.618879956546909e+00 2.607461842059256e+00 2.596755055123061e+00 2.586900635272906e+00 2.578032488831379e+0011111
 2.570277815538614e+00 2.563757478171078e+00 2.558583396480486e+00 2.554857752079207e+00 2.552678463964749e+0011111
 2.552140009914118e+00 2.553333738323848e+00 2.556348153619646e+00 2.561269177703660e+00 2.568180389654443e+0011111
 2.577163245669957e+00 2.588297281044013e+00 2.601660295788701e+00 2.617328525356510e+00 2.635376797774267e+0011111
 2.655878678374349e+00 2.678906603195291e+00 2.704532002022485e+00 2.732825411948530e+00 2.763856491571915e+0011111
 2.797688670190846e+00 2.834372126629702e+00 2.873948228370521e+00 2.916451110497916e+00 2.961907875571890e+0011111
 3.010339570729218e+00 3.061761367623139e+00 3.116183307322369e+00 3.173610773656916e+00 3.234044697159430e+0011111
 3.297482121710884e+00 3.363916463442663e+00 3.433337925585644e+00 3.505733692569181e+00 3.581088282738607e+0011111
 3.659383850771745e+00 3.740600272771426e+00 3.824715435069988e+00 3.911705517517118e+00 4.001545061935117e+0011111
 4.094207120493160e+00 4.189663610635824e+00 4.287885204918985e+00 4.388841596470438e+00 4.492501678381165e+0011111
 4.598833511381597e+00 4.707804500267594e+00 4.819381485306623e+00 4.933530874936880e+00 5.050218651962322e+0011111
 5.169410421510162e+00 5.291071626983955e+00 5.415167472058069e+00 5.541663053008381e+00 5.670523281399557e+0011111
 5.801713185412225e+00 5.935197707671376e+00 6.070941839901124e+00 6.208910632358559e+00 6.349069372197311e+0011111
 6.491383384670115e+00 6.635818255441864e+00 6.782339633824428e+00 6.930913499212890e+00 7.081506134544263e+0011111
 7.234083932836544e+00 7.388613667002639e+00 7.545062382719820e+00 7.703397460515673e+00 7.863586552996518e+0011111
 8.025597649290274e+00 8.189399098657104e+00 8.354959593266486e+00 8.522248194157275e+00 8.691234274340781e+0011111
 8.861887673118275e+00 9.034178515451906e+00 9.208077284539787e+00 9.383554853501440e+00 9.560582602194195e+0011111
 9.739132072993772e+00 9.919175383862367e+00 1.010068488626745e+01 1.028363345431895e+01 2.828687333247479e+0011111
 2.817037107655959e+00 2.806101082208946e+00 2.796020715473499e+00 2.786930301499176e+00 2.778957389868900e+0011111
 2.772223148328184e+00 2.766839620604271e+00 2.762908874865155e+00 2.760528701354517e+00 2.759793454428748e+0011111
 2.760794364045217e+00 2.763619820858597e+00 2.768355637387581e+00 2.775085287462282e+00 2.783890125938695e+0011111
 2.794849590467357e+00 2.808041386925937e+00 2.823541659967176e+00 2.841425149992319e+00 2.861765337733880e+0011111
 2.884634577518397e+00 2.910104220178760e+00 2.938244726494588e+00 2.969125681278511e+00 3.002810442464386e+0011111
 3.039349119834324e+00 3.078783007539470e+00 3.121146157154902e+00 3.166465608354317e+00 3.214762348282504e+0011111
 3.266051490170232e+00 3.320343018228165e+00 3.377642260980620e+00 3.437950095189143e+00 3.501263512475799e+0011111
 3.567575878199142e+00 3.636877346274229e+00 3.709155053240252e+00 3.784393470944949e+00 3.862574708926761e+0011111
 3.943678599472124e+00 4.027682986384217e+00 4.114564008234781e+00 4.204296166783358e+00 4.296852480962226e+0011111
 4.392204839200007e+00 4.490323876988219e+00 4.591179251466940e+00 4.694739820887843e+00 4.800973612240144e+0011111
 4.909847997629232e+00 5.021329785638251e+00 5.135385353985180e+00 5.251980655678175e+00 5.371081266935557e+0011111
 5.492652603103436e+00 5.616659840616605e+00 5.743068049297407e+00 5.871842115012848e+00 6.002947040973110e+0011111
 6.136347745532747e+00 6.272009196819555e+00 6.409896422143813e+00 6.549974686338384e+00 6.692209292938946e+0011111
 6.836565806475726e+00 6.983009855687992e+00 7.131507399940870e+00 7.282024702665495e+00 7.434528137880354e+0011111
 7.588984459988216e+00 7.745360696629366e+00 7.903624210751991e+00 8.063742637825701e+00 8.225683950270110e+0011111
 8.389416481051768e+00 8.554908906448093e+00 8.722130271994809e+00 8.891049935576893e+00 9.061637721734439e+0011111
 9.233863741022365e+00 9.407698462574750e+00 9.583112745779900e+00 9.760077957086779e+00 9.938565625776000e+0011111
 1.011854785701867e+01 1.029999698978624e+01 1.048288588597920e+01 3.040353050327537e+00 3.028479912926354e+0011111
 3.017323736178794e+00 3.007026432128984e+00 2.997722665713997e+00 2.989540307500111e+00 2.982600804997552e+0011111
 2.977016309835660e+00 2.972888772010265e+00 2.970315850454277e+00 2.969391774661640e+00 2.970207655647050e+0011111
 2.972851770577712e+00 2.977409823530006e+00 2.983965184573429e+00 2.992599109161587e+00 3.003390939611747e+0011111
 3.016418290278009e+00 3.031757217865508e+00 3.049482378192442e+00 3.069667170580872e+00 3.092383870944566e+0011111
 3.117703754541322e+00 3.145697209266531e+00 3.176433749604271e+00 3.209976665590659e+00 3.246376001425206e+0011111
 3.285672987884150e+00 3.327901615275255e+00 3.373088864019052e+00 3.421255663933821e+00 3.472417072768447e+0011111
 3.526583021019196e+00 3.583758785190859e+00 3.643945191651812e+00 3.707139183192569e+00 3.773334077840486e+0011111
 3.842519983621711e+00 3.914683992573721e+00 3.989810533377391e+00 4.067881673689354e+00 4.148877205151894e+0011111
 4.232774932116509e+00 4.319550954852637e+00 4.409179737925742e+00 4.501634258496388e+00 4.596886361175656e+0011111
 4.694906647789997e+00 4.795664742772923e+00 4.899129472489436e+00 5.005268832847547e+00 5.114050165661587e+0011111
 5.225440249997753e+00 5.339405434814600e+00 5.455911645101415e+00 5.574924429780989e+00 5.696409177609826e+0011111
 5.820331039121600e+00 5.946655058908588e+00 6.075346098261432e+00 6.206369136450450e+00 6.339689068509807e+0011111
 6.475270839849608e+00 6.613079455648613e+00 6.753080159178109e+00 6.895238232966213e+00 7.039519221074027e+0011111
 7.185888732294871e+00 7.334312706556208e+00 7.484757391596746e+00 7.637189146976421e+00 7.791574708855052e+0011111
 7.947881087101413e+00 8.106075627362774e+00 8.266125948261953e+00 8.428000005810182e+00 8.591666116989018e+0011111
 8.757092942499925e+00 8.924249512697983e+00 9.093105170669713e+00 9.263629726526354e+00 9.435793276751557e+0011111
 9.609566276754157e+00 9.784919572532191e+00 9.961824517468720e+00 1.014025262809264e+01 1.032017599712773e+0111111
 1.050156695139316e+01 1.068439834092310e+01 3.253705019178189e+00 3.241617629005772e+00 3.230249853724098e+0011111
 3.219743951017833e+00 3.210234949357694e+00 3.201851056702615e+00 3.194714011002134e+00 3.188936082678574e+0011111
 3.184619117710678e+00 3.181860654178045e+00 3.180754803656958e+00 3.181392587751380e+00 3.183862196323328e+0011111
 3.188249219911836e+00 3.194636920765896e+00 3.203106451800807e+00 3.213737057662358e+00 3.226606259530759e+0011111
 3.241790025105577e+00 3.259362925073158e+00 3.279398277233027e+00 3.301968279347644e+00 3.327144131679705e+0011111
 3.354996150090892e+00 3.385593779815925e+00 3.419000244264581e+00 3.455265523485564e+00 3.494430786444662e+0011111
 3.536529963855321e+00 3.581589978645392e+00 3.629631705136357e+00 3.680670147478240e+00 3.734715184375475e+0011111
 3.791772042263462e+00 3.851841499084776e+00 3.914920450774059e+00 3.981002170003761e+00 4.050076720881437e+0011111
 4.122131152901545e+00 4.197149853520351e+00 4.275114850434434e+00 4.356005896539747e+00 4.439800758607118e+0011111
 4.526475500445519e+00 4.616004551237062e+00 4.708360853795196e+00 4.803516219381310e+00 4.901441217432671e+0011111
 5.002105440919008e+00 5.105477685633474e+00 5.211525917772283e+00 5.320217450267585e+00 5.431519034103960e+0011111
 5.545396990931140e+00 5.661817219175841e+00 5.780745241919114e+00 5.902146422772253e+00 6.025985887796935e+0011111
 6.152228657764322e+00 6.280839570773400e+00 6.411783583511742e+00 6.545025569019943e+00 6.680530451284771e+0011111
 6.818263214613667e+00 6.958189081941127e+00 7.100273315976164e+00 7.244481441462288e+00 7.390779048361159e+0011111
 7.539132058239514e+00 7.689506697680354e+00 7.841869304776193e+00 7.996186598898792e+00 8.152425573526035e+0011111
 8.310553558286790e+00 8.470538156149710e+00 8.632347307827875e+00 8.795949315352567e+00 8.961312824814753e+0011111
 9.128406852290812e+00 9.297200726912465e+00 9.467664245152282e+00 9.639767490163713e+00 9.813480904326340e+0011111
 9.988775320902512e+00 1.016562208082590e+01 1.034399268845522e+01 1.052385922461630e+01 1.070519400449583e+0111111
 1.088796986675423e+01 3.468593522753275e+00 3.456299903541376e+00 3.444728394301943e+00 3.434021635744457e+0011111
 3.424315010638880e+00 3.415737046621279e+00 3.408409760460388e+00 3.402445539468512e+00 3.397946134389710e+0011111
 3.395008973574484e+00 3.393728062856276e+00 3.394194296547970e+00 3.396495742051357e+00 3.400717900544988e+0011111
 3.406943945963073e+00 3.415254944253588e+00 3.425730054703941e+00 3.438446714944829e+00 3.453480811084242e+0011111
 3.470906834282053e+00 3.490798024949124e+00 3.513226523776891e+00 3.538263473321483e+00 3.565979115115510e+0011111
 3.596442823312516e+00 3.629717753271435e+00 3.665853819823267e+00 3.704892129370094e+00 3.746866552552512e+0011111
 3.791803954567467e+00 3.839725154211246e+00 3.890645102189429e+00 3.944573625727922e+00 4.001515901643742e+0011111
 4.061472660023583e+00 4.124440750618383e+00 4.190413401505375e+00 4.259380633707640e+00 4.331329455073581e+0011111
 4.406244212784422e+00 4.484106895569783e+00 4.564897218607857e+00 4.648592912145785e+00 4.735170004611175e+0011111
 4.824602890898485e+00 4.916864480581480e+00 5.011926552686713e+00 5.109759645380816e+00 5.210333321288631e+0011111
 5.313616346747866e+00 5.419576659354295e+00 5.528181544262031e+00 5.639397725469056e+00 5.753191498400550e+0011111
 5.869528735992764e+00 5.988374936543776e+00 6.109695439564060e+00 6.233455347672473e+00 6.359619658832321e+0011111
 6.488153188947702e+00 6.619020873103260e+00 6.752187563308523e+00 6.887618163071846e+00 7.025277636756506e+0011111
 7.165131187869472e+00 7.307144060191982e+00 7.451281760023330e+00 7.597509859348984e+00 7.745794262212616e+0011111
 7.896101178112957e+00 8.048396928483310e+00 8.202648216448051e+00 8.358822019636804e+00 8.516885652217065e+0011111
 8.676806702071246e+00 8.838553095189990e+00 9.002093119235024e+00 9.167395406270160e+00 9.334428958676865e+0011111
 9.503163092214454e+00 9.673567590296173e+00 9.845612523320149e+00 1.001926832120589e+01 1.019450580504245e+0111111
 1.037129630386883e+01 1.054961131041984e+01 1.072942289416051e+01 1.091070335917250e+01 1.109342553325988e+0111111
 3.684887063289358e+00 3.672394815257030e+00 3.660627067985859e+00 3.649726823963495e+00 3.639829801385236e+0011111
 3.631064831239064e+00 3.623554195491863e+00 3.617410391678630e+00 3.612735077132522e+00 3.609625573436951e+0011111
 3.608175784005697e+00 3.608476504790119e+00 3.610615708632015e+00 3.614678805722558e+00 3.620748882375846e+0011111
 3.628906920101791e+00 3.639231996763834e+00 3.651801471429761e+00 3.666691154365550e+00 3.683975463481039e+0011111
 3.703727568409931e+00 3.726019523293588e+00 3.750922389236945e+00 3.778506347313964e+00 3.808840712239355e+0011111
 3.841988581061628e+00 3.877999811513314e+00 3.916915454172472e+00 3.958769325174869e+00 4.003588236561773e+0011111
 4.051392955340477e+00 4.102198381801520e+00 4.156014294128447e+00 4.212845832692745e+00 4.272693691969484e+0011111
 4.335554674621611e+00 4.401421963409037e+00 4.470285535716959e+00 4.542132357344630e+00 4.616946734928933e+0011111
 4.694710618082186e+00 4.775403684220136e+00 4.859003627115211e+00 4.945486439945538e+00 5.034826483523032e+0011111
 5.126996634451401e+00 5.221968639848698e+00 5.319713006986896e+00 5.420199268565280e+00 5.523396161923056e+0011111
 5.629271596545037e+00 5.737792830324680e+00 5.848926560814549e+00 5.962639057776519e+00 6.078896169234362e+0011111
 6.197663369294915e+00 6.318905973970626e+00 6.442589063048988e+00 6.568677612303420e+00 6.697136416065679e+0011111
 6.827930388442891e+00 6.961024361040268e+00 7.096383217514459e+00 7.233971902910047e+00 7.373755601929611e+0011111
 7.515699540046482e+00 7.659769205731477e+00 7.805930153604764e+00 7.954148270792326e+00 8.104389750307938e+0011111
 8.256620897518431e+00 8.410808399886550e+00 8.566919219772055e+00 8.724920656451815e+00 8.884780283284812e+0011111
 9.046466012093928e+00 9.209946116717711e+00 9.375189215730714e+00 9.542164298348858e+00 9.710840667479761e+0011111
 9.881188093989365e+00 1.005317663602378e+01 1.022677671153702e+01 1.040195912993068e+01 1.057869520882630e+0111111
 1.075695642980325e+01 1.093671485142570e+01 1.111794276712168e+01 1.130061299428186e+01 3.902470737364387e+0011111
 3.889786776949714e+00 3.877829601321601e+00 3.866742607415296e+00 3.856661844876886e+00 3.847716427430717e+0011111
 3.840028884299953e+00 3.833711812044518e+00 3.828866771762476e+00 3.825590976980616e+00 3.823978228161263e+0011111
 3.824119222997338e+00 3.826101840403608e+00 3.830011400656977e+00 3.835930903887952e+00 3.843941248902724e+0011111
 3.854121434116891e+00 3.866548742205330e+00 3.881298909915014e+00 3.898446284346900e+00 3.918063966887136e+0011111
 3.940223945855132e+00 3.964997218835216e+00 3.992453905567878e+00 4.022663261516190e+00 4.055688326461389e+0011111
 4.091578902762667e+00 4.130375987434451e+00 4.172113344779985e+00 4.216817736665536e+00 4.264509881511893e+0011111
 4.315204632546673e+00 4.368911722352915e+00 4.425636235873800e+00 4.485378814022557e+00 4.548136220006575e+0011111
 4.613901597917884e+00 4.682664887280648e+00 4.754413016858527e+00 4.829130257090434e+00 4.906798522235034e+0011111
 4.987397455200835e+00 5.070904716097601e+00 5.157296265280275e+00 5.246546431569213e+00 5.338628060398076e+0011111
 5.433512868524394e+00 5.531171333874216e+00 5.631572969655823e+00 5.734686489192706e+00 5.840479773594430e+0011111
 5.948920053298510e+00 6.059973999279089e+00 6.173607855557929e+00 6.289787445220178e+00 6.408478218200878e+0011111
 6.529645467074899e+00 6.653254248895625e+00 6.779269517376824e+00 6.907656045437662e+00 7.038378726393820e+0011111
 7.171402371655716e+00 7.306691845258621e+00 7.444212073177159e+00 7.583928221574482e+00 7.725805497895185e+0011111
 7.869809373073217e+00 8.015905384665800e+00 8.164059403192834e+00 8.314237605502644e+00 8.466406281221719e+0011111
 8.620532102482823e+00 8.776582016711979e+00 8.934523308635091e+00 9.094323537430089e+00 9.255950601096377e+0011111
 9.419372759994847e+00 9.584558619556930e+00 9.751477156179151e+00 9.920097660263107e+00 1.009038989047217e+0111111
 1.026232389304381e+01 1.043587007430815e+01 1.061099923231894e+01 1.078768267361739e+01 1.096589186896204e+0111111
 1.114559886634786e+01 1.132677594887785e+01 1.150939592385459e+01 4.121243335337430e+00 4.108374151818931e+0011111
 4.096234015095593e+00 4.084966618268998e+00 4.074708314884495e+00 4.065588506285320e+00 4.057729969354185e+0011111
 4.051245400437215e+00 4.046236268035879e+00 4.042799685546341e+00 4.041029391426119e+00 4.041015988918180e+0011111
 4.042847259898605e+00 4.046608432386017e+00 4.052382418642217e+00 4.060250033649301e+00 4.070290195737855e+0011111
 4.082580110965214e+00 4.097195442685983e+00 4.114210467617007e+00 4.133698219573666e+00 4.155730621942234e+0011111
 4.180378609852563e+00 4.207712242925018e+00 4.237800718705465e+00 4.270707021140775e+00 4.306480898728546e+0011111
 4.345163296493208e+00 4.386787928526315e+00 4.431381508174502e+00 4.478964706951027e+00 4.529552332713770e+0011111
 4.583154074144586e+00 4.639774973689382e+00 4.699415631107511e+00 4.762072769739148e+00 4.827739495042454e+0011111
 4.896405709090882e+00 4.968058304333215e+00 5.042681515984624e+00 5.120257224128895e+00 5.200765038508456e+0011111
 5.284182587037815e+00 5.370485798811397e+00 5.459648972289485e+00 5.551644923413459e+00 5.646445340285251e+0011111
 5.744020672763738e+00 5.844340397695082e+00 5.947373198082577e+00 6.053086930550023e+00 6.161448801563015e+0011111
 6.272425458638310e+00 6.385983122853681e+00 6.502087594860967e+00 6.620704302668535e+00 6.741798517426027e+0011111
 6.865335275256921e+00 6.991279509433454e+00 7.119595972914058e+00 7.250249539526326e+00 7.383205001656666e+0011111
 7.518427204771513e+00 7.655881056722630e+00 7.795531705986924e+00 7.937344342749848e+00 8.081284422047204e+0011111
 8.227317471260269e+00 8.375409345525700e+00 8.525526205506885e+00 8.677634325092594e+00 8.831700361108350e+0011111
 8.987691246087511e+00 9.145574250262799e+00 9.305316918704015e+00 9.466887135673803e+00 9.630253148154566e+0011111
 9.795383548545045e+00 9.962247300542995e+00 1.013081368217376e+01 1.030105244003613e+01 1.047293360860427e+0111111
 1.064642758273635e+01 1.082150514929596e+01 1.099813760390689e+01 1.117629640667420e+01 1.135595359519504e+0111111
 1.153708144242214e+01 1.171965274574767e+01 4.341115865125298e+00 4.328067429039042e+00 4.315750169882734e+0011111
 4.304308118566087e+00 4.293877941234826e+00 4.284589321457393e+00 4.276565282512057e+00 4.269918625943466e+0011111
 4.264750740509742e+00 4.261158640192098e+00 4.259235931932246e+00 4.259073125988648e+00 4.260757919928279e+0011111
 4.264375458719785e+00 4.270008573140759e+00 4.277737998487178e+00 4.287642575373060e+00 4.299799444064449e+0011111
 4.314284222912836e+00 4.331171118305964e+00 4.350533094991067e+00 4.372442010305257e+00 4.396968736139703e+0011111
 4.424183271498753e+00 4.454154755765305e+00 4.486946117022651e+00 4.522607050064627e+00 4.561178448244601e+0011111
 4.602693975899647e+00 4.647180298432192e+00 4.694658041123954e+00 4.745141967224092e+00 4.798641722345693e+0011111
 4.855162307329183e+00 4.914704281720693e+00 4.977264329973427e+00 5.042835519923400e+00 5.111407717229436e+0011111
 5.182967779079657e+00 5.257499906532390e+00 5.334985946571358e+00 5.415405476851523e+00 5.498736094170926e+0011111
 5.584953697439333e+00 5.674032555827169e+00 5.765945456845791e+00 5.860664060993842e+00 5.958158791322278e+0011111
 6.058399098634956e+00 6.161353640630207e+00 6.266990249337353e+00 6.375276107312413e+00 6.486177838823107e+0011111
 6.599661642335486e+00 6.715693296504806e+00 6.834238207936830e+00 6.955261626952332e+00 7.078728569400310e+0011111
 7.204603948814387e+00 7.332852498932501e+00 7.463439074862888e+00 7.596328450757419e+00 7.731485454317186e+0011111
 7.868874976082791e+00 8.008462147659746e+00 8.150212142788032e+00 8.294090399527086e+00 8.440062423367323e+0011111
 8.588094053547579e+00 8.738151436399406e+00 8.890200831775916e+00 9.044208882759426e+00 9.200142508428552e+0011111
 9.357968965845423e+00 9.517655787188932e+00 9.679170844105798e+00 9.842482371232695e+00 1.000755894888789e+0111111
 1.017436952894892e+01 1.034288337787608e+01 1.051307023095324e+01 1.068490011158457e+01 1.085834340379812e+0111111
 1.103337088386211e+01 1.120995383703460e+01 1.138806371327956e+01 1.156767254027267e+01 1.174875258125986e+0111111
 1.193127662413631e+01 4.562008164286495e+00 4.548786288624061e+00 4.536297616786713e+00 4.524686503623302e+0011111
 4.514089915774551e+00 4.504637808799316e+00 4.496453444100953e+00 4.489649725274104e+00 4.484327964393803e+0011111
 4.480585086430245e+00 4.478514612548559e+00 4.478206970284421e+00 4.479749777374171e+00 4.483228101702291e+0011111
 4.488724699576529e+00 4.496320234316633e+00 4.506093476943144e+00 4.518121490575011e+00 4.532479799986306e+0011111
 4.549242547630939e+00 4.568482637317826e+00 4.590271866605780e+00 4.614681048886201e+00 4.641780126030622e+0011111
 4.671638181719444e+00 4.704318089806453e+00 4.739869498620305e+00 4.778333270760412e+00 4.819743021648346e+0011111
 4.864125368054615e+00 4.911500888529584e+00 4.961884301379447e+00 5.015285208959928e+00 5.071708570445373e+0011111
 5.131154905220310e+00 5.193620859000816e+00 5.259099462236339e+00 5.327580544481273e+00 5.399050928038001e+0011111
 5.473494780238838e+00 5.550893915446338e+00 5.631227879747954e+00 5.714474239380067e+00 5.800608863651895e+0011111
 5.889605993052506e+00 5.981438387291736e+00 6.076077679909560e+00 6.173494267806298e+00 6.273657576410383e+0011111
 6.376536238788965e+00 6.482098063055154e+00 6.590310208536032e+00 6.701139276931427e+00 6.814551444775672e+0011111
 6.930512469404864e+00 7.048987736695736e+00 7.169942476808830e+00 7.293341685981385e+00 7.419150258664406e+0011111
 7.547332910023886e+00 7.677854477089188e+00 7.810679716409567e+00 7.945773438543675e+00 8.083100517334490e+0011111
 8.222626068120000e+00 8.364315248788674e+00 8.508133481950956e+00 8.654046258037841e+00 8.802019401605911e+0011111
 8.952019044669722e+00 9.104011433119181e+00 9.257963196416242e+00 9.413841240351399e+00 9.571612809020763e+0011111
 9.731245421949534e+00 9.892706938433671e+00 1.005596558105294e+01 1.022098991835386e+01 1.038774889071896e+0111111
 1.055621175338220e+01 1.072634823066193e+01 1.089812833525011e+01 1.107152244070864e+01 1.124650131307864e+0111111
 1.142303622762331e+01 1.160109862453752e+01 1.178066052194724e+01 1.196169417376205e+01 1.214417235874819e+0111111
 4.783847916325072e+00 4.770458089160758e+00 4.757803427827139e+00 4.746028594896814e+00 4.735270842996730e+0011111
 4.725660387013949e+00 4.717320715786006e+00 4.710364829351303e+00 4.704893963735607e+00 4.701004956425305e+0011111
 4.698791244657402e+00 4.698343175349011e+00 4.699748288710618e+00 4.703091578001330e+00 4.708455727632663e+0011111
 4.715921331603679e+00 4.725567094051291e+00 4.737470013522380e+00 4.751705552416138e+00 4.768347792904092e+0011111
 4.787469580508926e+00 4.809142656410354e+00 4.833437779445222e+00 4.860424838678105e+00 4.890172866658128e+0011111
 4.922744687716040e+00 4.958189895936507e+00 4.996549286958765e+00 5.037856430344271e+00 5.082137899595417e+0011111
 5.129414230901733e+00 5.179700101156767e+00 5.233005072280849e+00 5.289334064009247e+00 5.348687557294422e+0011111
 5.411062160431120e+00 5.476450867476868e+00 5.544843483363931e+00 5.616226804461403e+00 5.690584964065000e+0011111
 5.767899743699034e+00 5.848150657749711e+00 5.931315241832232e+00 6.017369335661702e+00 6.106287151110830e+0011111
 6.198041420204812e+00 6.292603749687702e+00 6.389944510512379e+00 6.490033102970626e+00 6.592838135768356e+0011111
 6.698327393399621e+00 6.806468012283372e+00 6.917226571892781e+00 7.030569227189235e+00 7.146461714563387e+0011111
 7.264869399549241e+00 7.385757492543888e+00 7.509090970578196e+00 7.634834709432812e+00 7.762953406119417e+0011111
 7.893411880010128e+00 8.026174870475971e+00 8.161207171359226e+00 8.298473640231997e+00 8.437939376591311e+0011111
 8.579569522899732e+00 8.723329486742660e+00 8.869184743913351e+00 9.017101104705009e+00 9.167044687230760e+0011111
 9.318981723829200e+00 9.472878830749693e+00 9.628702900898029e+00 9.786421165803022e+00 9.946001132730004e+0011111
 1.010741064901286e+01 1.027061792555789e+01 1.043559151951787e+01 1.060230036015276e+01 1.077071369183699e+0111111
 1.094080122828452e+01 1.111253297183048e+01 1.128587928592015e+01 1.146081092671129e+01 1.163729915981017e+0111111
 1.181531541597465e+01 1.199483170410729e+01 1.217582026910181e+01 1.235825388091026e+01 5.006570650690629e+0011111
 4.993017867808658e+00 4.980202192599407e+00 4.968268576792642e+00 4.957354542050703e+00 4.947590547427239e+0011111
 4.939100295978023e+00 4.931996875905294e+00 4.926381445045397e+00 4.922350752386897e+00 4.919998150781424e+0011111
 4.919413906537343e+00 4.920685482739435e+00 4.923897798746353e+00 4.929133468066945e+00 4.936473016593786e+0011111
 4.945995082973977e+00 4.957776602720637e+00 4.971892977510941e+00 4.988418230975825e+00 5.007425152160673e+0011111
 5.028985427723597e+00 5.053169763837164e+00 5.080047998668674e+00 5.109689115553754e+00 5.142155891216459e+0011111
 5.177497873670123e+00 5.215755813951530e+00 5.256963238426444e+00 5.301146678750197e+00 5.348326630559285e+0011111
 5.398517731436894e+00 5.451729505187204e+00 5.507966834577748e+00 5.567230164698326e+00 5.629516069044966e+0011111
 5.694817507880591e+00 5.763124242562564e+00 5.834423029139487e+00 5.908697970585372e+00 5.985930818751100e+0011111
 6.066101059009606e+00 6.149186198630190e+00 6.235162049652726e+00 6.324002796945267e+00 6.415681146196060e+0011111
 6.510168678474658e+00 6.607435739714678e+00 6.707451705835020e+00 6.810185162843760e+00 6.915603881825781e+0011111
 7.023674978690438e+00 7.134365010629526e+00 7.247640111015456e+00 7.363465995312183e+00 7.481808008760989e+0011111
 7.602631342073529e+00 7.725900953177382e+00 7.851581699308329e+00 7.979638259469192e+00 8.110035435538034e+0011111
 8.242737949886575e+00 8.377710579833522e+00 8.514918166885124e+00 8.654325794913152e+00 8.795898591179267e+0011111
 8.939601948476867e+00 9.085401328201403e+00 9.233262526628472e+00 9.383151648220466e+00 9.535034912019377e+0011111
 9.688878921319972e+00 9.844650556403844e+00 1.000231703649496e+01 1.016184585686252e+01 1.032320485314291e+0111111
 1.048636222483383e+01 1.065128651795906e+01 1.081794665092030e+01 1.098631185749588e+01 1.115635184105762e+0111111
 1.132803659384466e+01 1.150133646944485e+01 1.167622221438979e+01 1.185266508488398e+01 1.203063650250109e+0111111
 1.221010846717072e+01 1.239105321501854e+01 1.257344350742760e+01 5.230118898526831e+00 5.216407922718088e+0011111
 5.203435867968205e+00 5.191347977052286e+00 5.180282046742083e+00 5.170368853988226e+00 5.161732319833483e+0011111
 5.154485609474365e+00 5.148729797296115e+00 5.144561539900645e+00 5.142074102682653e+00 5.141357668971286e+0011111
 5.142499622956088e+00 5.145584808840175e+00 5.150695768414447e+00 5.157912959024981e+00 5.167314953708494e+0011111
 5.178978625094961e+00 5.192979314519536e+00 5.209390987645774e+00 5.228286377776871e+00 5.249737117919236e+0011111
 5.273813862562378e+00 5.300586400048561e+00 5.330123665645613e+00 5.362488389674887e+00 5.397730075327576e+0011111
 5.435889430321078e+00 5.476999939132723e+00 5.521088092893835e+00 5.568174348019586e+00 5.618273304117009e+0011111
 5.671394448205622e+00 5.727542627409562e+00 5.786718252269383e+00 5.848917862781722e+00 5.914134386718287e+0011111
 5.982357553914028e+00 6.053574089826759e+00 6.127768067736101e+00 6.204921210661561e+00 6.285012975976020e+0011111
 6.368020843749886e+00 6.453920599596617e+00 6.542686402702999e+00 6.634290933795049e+00 6.728705749674239e+0011111
 6.825901172676444e+00 6.925846555770381e+00 7.028510461600882e+00 7.133860629830732e+00 7.241864153245303e+0011111
 7.352487568849865e+00 7.465696990271841e+00 7.581458113670477e+00 7.699736265419982e+00 7.820496617798833e+0011111
 7.943704110730588e+00 8.069323583870608e+00 8.197319699058696e+00 8.327657241420500e+00 8.460300916978724e+0011111
 8.595215487098841e+00 8.732365777721789e+00 8.871716857540864e+00 9.013233843595462e+00 9.156882117935579e+0011111
 9.302627127587265e+00 9.450434654852565e+00 9.600270790601350e+00 9.752101740650065e+00 9.905894095421516e+0011111
 1.006161472266617e+01 1.021923082940561e+01 1.037870989902378e+01 1.054001975557799e+01 1.070312858728244e+0111111
 1.086800492916304e+01 1.103461768889957e+01 1.120293608981527e+01 1.137292982508489e+01 1.154456887700014e+0111111
 1.171782358944306e+01 1.189266469947331e+01 1.206906345404995e+01 1.224699126572063e+01 1.242642012560152e+0111111
 1.260732226121100e+01 1.278967042552458e+01 5.454439988515580e+00 5.440575213899644e+00 5.427451198440652e+0011111
 5.415213477688962e+00 5.404000109004467e+00 5.393942031322389e+00 5.385163363472768e+00 5.377777362654831e+0011111
 5.371885033035235e+00 5.367582947238141e+00 5.364964321362483e+00 5.364119307539665e+00 5.365135207549696e+0011111
 5.368096786958970e+00 5.373086512987538e+00 5.380184772127838e+00 5.389470069972953e+00 5.401019214847675e+0011111
 5.414907486679621e+00 5.431208792408273e+00 5.449995809105027e+00 5.471340115865619e+00 5.495312315436283e+0011111
 5.521982146444878e+00 5.551418496348512e+00 5.583684049447961e+00 5.618828264600760e+00 5.656891806783368e+0011111
 5.697908119238747e+00 5.741903653291358e+00 5.788898826904274e+00 5.838908202520096e+00 5.891941231219495e+0011111
 5.948002725355797e+00 6.007093061813269e+00 6.069208747996954e+00 6.134342680105090e+00 6.202484557373750e+0011111
 6.273621075595622e+00 6.347736279280593e+00 6.424811863537733e+00 6.504827258654748e+00 6.587759918410013e+0011111
 6.673585602887711e+00 6.762278446479331e+00 6.853811105822303e+00 6.948155114310309e+00 7.045280771527613e+0011111
 7.145157408324067e+00 7.247753565836059e+00 7.353036962807069e+00 7.460974671671987e+00 7.571533209635002e+0011111
 7.684678671053327e+00 7.800376733329085e+00 7.918592704575472e+00 8.039291739289764e+00 8.162438760078508e+0011111
 8.287998589729284e+00 8.415935873648937e+00 8.546215380951191e+00 8.678801802054574e+00 8.813659883115397e+0011111
 8.950754435248157e+00 9.090050512683643e+00 9.231513213773683e+00 9.375107903113721e+00 9.520800014594188e+0011111
 9.668555317660024e+00 9.818339890599127e+00 9.970119926917363e+00 1.012386200499436e+01 1.027953298080055e+0111111
 1.043710004983614e+01 1.059653068421785e+01 1.075779269698508e+01 1.092085426557869e+01 1.108568391449089e+0111111
 1.125225054110255e+01 1.142052335866775e+01 1.159047205051695e+01 1.176206658931745e+01 1.193527730954186e+0111111
 1.211007493905054e+01 1.228643071842980e+01 1.246431605393069e+01 1.264370292790978e+01 1.282456355933720e+0111111
 1.300687069284490e+01 5.679487176358912e+00 5.665472738301181e+00 5.652200801827753e+00 5.639817187547153e+0011111
 5.628460216855941e+00 5.618261067345594e+00 5.609344066524391e+00 5.601822562162223e+00 5.595797494207566e+0011111
 5.591365359963670e+00 5.588619268795258e+00 5.587649251680350e+00 5.588542544430902e+00 5.591383847047348e+0011111
